ncols         573
nrows         32
xllcorner     125.12896373
yllcorner     41.8722628456
cellsize      0.01
NODATA_value  -9999
-9999 -9999 -9999 -9999 -9999 -9999 -9999 -9999 -9999 -9999 -9999 -9999 -9999 -9999 -9999 -9999 390 -9999 456 393 389 421 450 413 406 408 412 427 471 464 484 505 609 643 530 500 646 500 616 695 643 688 634 534 438 506 449 396 390 375 385 417 440 604 673 617 601 806 819 602 606 722 831 940 1016 832 813 674 625 478 509 541 456 480 422 428 373 524 445 484 418 384 364 400 384 369 387 380 391 384 384 413 422 429 422 385 477 433 398 382 465 430 426 521 473 558 538 504 540 642 790 883 877 786 747 813 707 762 679 757 780 913 743 759 752 770 826 808 834 804 833 862 966 1065 1057 1080 1009 1093 969 951 1079 1132 1031 941 899 829 925 903 832 838 854 844 854 872 855 927 1060 1012 1072 950 813 813 843 853 762 748 713 718 700 674 723 744 668 767 827 757 767 862 879 989 876 746 797 918 1142 1162 1021 850 795 747 873 978 855 745 678 709 703 753 896 822 882 899 911 858 991 830 668 678 765 726 565 692 772 719 718 617 646 571 648 626 581 677 693 568 635 709 734 729 741 746 742 769 730 730 732 716 725 771 756 703 699 782 762 775 783 805 793 805 822 811 834 822 856 873 880 869 871 890 896 891 913 929 918 943 951 943 948 968 992 987 992 1001 1013 1012 997 1001 1021 1037 1035 1071 1073 1073 1091 1096 1101 1110 1135 1135 1127 1123 1145 1150 1146 1145 1139 1139 1149 1160 1125 1147 1144 1157 1138 1132 1117 1128 1153 1155 1126 1162 1143 1160 1173 1171 1171 1166 1153 1154 1141 1129 1144 1126 1092 1108 1166 1274 1342 1325 1340 1309 1303 1268 1156 1099 1188 1220 1135 998 914 995 946 992 937 886 857 875 923 995 991 954 1077 968 970 935 933 1007 863 796 861 965 1003 923 809 803 825 876 949 857 824 794 770 710 808 792 762 901 1086 1178 1078 1188 1020 934 769 797 771 694 753 927 769 926 1087 910 815 674 592 786 865 693 676 585 617 675 538 506 484 -9999 -9999 -9999 -9999 -9999 -9999 -9999 -9999 -9999 -9999 -9999 -9999 -9999 -9999 -9999 -9999 -9999 -9999 -9999 -9999 -9999 -9999 -9999 -9999 -9999 -9999 -9999 -9999 -9999 -9999 -9999 -9999 -9999 -9999 -9999 -9999 -9999 -9999 -9999 -9999 -9999 -9999 -9999 -9999 -9999 -9999 -9999 -9999 -9999 -9999 -9999 -9999 -9999 -9999 -9999 -9999 -9999 -9999 -9999 -9999 -9999 -9999 -9999 -9999 -9999 -9999 -9999 -9999 -9999 -9999 -9999 -9999 -9999 -9999 -9999 -9999 -9999 -9999 -9999 -9999 -9999 -9999 -9999 -9999 -9999 -9999 -9999 -9999 -9999 -9999 -9999 -9999 -9999 -9999 -9999 -9999 -9999 -9999 -9999 -9999 -9999 -9999 -9999 -9999 -9999 -9999 -9999 -9999 -9999 -9999 -9999 -9999 -9999 -9999 -9999 -9999 -9999 -9999 -9999 -9999 -9999 -9999 -9999 -9999 -9999 -9999 -9999 -9999 -9999 -9999 -9999 -9999 -9999 -9999 -9999 -9999 -9999 -9999 -9999 -9999 -9999 -9999 -9999 -9999 -9999 -9999 -9999 -9999 -9999 -9999 -9999 -9999 -9999 -9999 -9999 -9999 -9999 -9999 -9999 -9999 -9999 -9999 -9999 -9999 -9999 -9999 -9999 -9999
-9999 -9999 -9999 -9999 -9999 -9999 -9999 -9999 -9999 -9999 -9999 -9999 -9999 -9999 -9999 391 384 -9999 438 424 410 396 -9999 -9999 435 410 491 470 544 500 663 670 730 740 624 643 585 601 719 773 752 609 500 425 483 435 404 438 428 402 441 533 589 775 880 721 737 901 846 718 852 787 833 939 838 724 634 584 508 482 458 485 487 473 536 430 421 383 393 457 401 373 385 396 377 394 377 424 397 371 459 471 456 418 490 473 436 434 424 494 482 537 525 515 453 587 695 766 854 752 973 886 718 731 707 702 680 726 684 705 773 741 690 714 745 756 825 910 973 1006 1062 1045 1029 1041 1098 1082 930 988 858 1004 977 923 886 838 809 817 725 789 747 826 835 848 850 887 877 887 979 818 822 802 882 776 765 767 755 748 748 724 710 729 861 773 711 675 773 758 897 1041 1008 883 762 878 748 880 1042 1141 1131 1017 896 900 902 863 713 837 837 782 844 898 973 944 956 946 1001 778 790 757 657 791 768 647 505 566 711 868 793 713 510 631 620 643 723 864 741 557 712 719 730 748 750 748 760 759 747 768 743 735 749 726 713 723 761 778 776 776 798 785 762 805 813 825 848 816 845 857 845 856 887 847 886 893 921 888 875 924 933 931 971 967 977 984 1005 997 1041 1030 1003 1047 1063 1067 1048 1076 1102 1111 1126 1150 1158 1151 1166 1168 1154 1166 1191 1185 1180 1165 1169 1170 1174 1169 1162 1172 1168 1184 1166 1158 1163 1148 1175 1184 1141 1165 1174 1181 1183 1204 1184 1179 1170 1171 1161 1160 1152 1118 1097 1140 1166 1331 1377 1336 1325 1281 1193 1144 1170 1251 1285 1207 1072 999 985 935 955 902 853 903 939 952 962 1025 1156 1184 1184 1084 948 954 999 874 858 805 819 848 870 796 827 825 861 905 988 1023 944 889 788 770 685 745 780 907 1004 1105 1019 997 1079 998 895 918 842 767 640 670 764 976 1089 970 810 811 643 793 735 697 598 514 562 578 488 -9999 -9999 -9999 -9999 -9999 -9999 -9999 -9999 -9999 -9999 -9999 -9999 -9999 -9999 -9999 -9999 -9999 -9999 -9999 -9999 -9999 -9999 -9999 -9999 -9999 -9999 -9999 -9999 -9999 -9999 -9999 -9999 -9999 -9999 -9999 -9999 -9999 -9999 -9999 -9999 -9999 -9999 -9999 -9999 -9999 -9999 -9999 -9999 -9999 -9999 -9999 -9999 -9999 -9999 -9999 -9999 -9999 -9999 -9999 -9999 -9999 -9999 -9999 -9999 -9999 -9999 -9999 -9999 -9999 -9999 -9999 -9999 -9999 -9999 -9999 -9999 -9999 -9999 -9999 -9999 -9999 -9999 -9999 -9999 -9999 -9999 -9999 -9999 -9999 -9999 -9999 -9999 -9999 -9999 -9999 -9999 -9999 -9999 -9999 -9999 -9999 -9999 -9999 -9999 -9999 -9999 -9999 -9999 -9999 -9999 -9999 -9999 -9999 -9999 -9999 -9999 -9999 -9999 -9999 -9999 -9999 -9999 -9999 -9999 -9999 -9999 -9999 -9999 -9999 -9999 -9999 -9999 -9999 -9999 -9999 -9999 -9999 -9999 -9999 -9999 -9999 -9999 -9999 -9999 -9999 -9999 -9999 -9999 -9999 -9999 -9999 -9999 -9999 -9999 -9999 -9999 -9999 -9999 -9999 -9999 -9999 -9999 -9999 -9999 -9999 -9999 -9999 -9999 -9999 -9999
-9999 -9999 -9999 -9999 -9999 -9999 -9999 -9999 -9999 -9999 -9999 -9999 -9999 -9999 -9999 -9999 -9999 -9999 418 420 453 449 -9999 -9999 -9999 463 440 437 482 473 530 589 709 552 562 524 500 632 838 578 543 506 467 513 468 402 409 410 382 407 506 595 707 917 1085 1030 1067 759 705 930 820 750 855 966 1018 978 881 800 651 522 547 496 438 388 428 437 405 395 389 384 366 398 368 386 398 405 418 415 429 433 477 419 508 429 522 451 453 500 528 521 654 681 723 548 512 684 861 810 880 848 801 739 686 677 650 641 673 672 706 720 704 706 704 702 701 728 740 774 771 900 972 958 985 1010 972 860 834 826 807 782 766 746 732 748 798 762 776 857 914 816 820 837 937 1067 1092 887 972 819 773 770 777 791 772 781 790 881 798 737 806 898 860 784 701 830 751 728 807 969 883 885 914 823 784 798 1045 1160 1196 1287 1162 1002 804 901 932 801 890 969 922 896 795 787 813 824 748 691 639 717 762 714 673 619 508 682 829 760 746 704 667 720 746 679 731 713 584 721 700 736 737 745 785 787 760 762 761 743 744 746 766 760 754 781 788 735 796 735 784 818 819 829 778 776 794 849 838 815 825 847 869 887 913 892 908 927 935 932 949 957 956 959 994 999 977 1001 1008 1051 1055 1036 1071 1086 1108 1122 1144 1172 1236 1202 1193 1190 1191 1188 1184 1217 1203 1226 1220 1223 1214 1198 1187 1200 1200 1188 1195 1192 1187 1187 1184 1183 1192 1186 1210 1182 1185 1195 1189 1204 1188 1201 1198 1175 1176 1167 1162 1185 1120 1140 1187 1314 1268 1242 1204 1171 1223 1272 1254 1215 1093 1011 947 926 963 892 886 998 991 1021 1040 973 1088 1163 1203 1234 1290 1072 1009 1126 997 955 877 825 816 801 806 762 833 871 926 979 985 1111 1103 978 897 798 672 714 838 973 1013 900 1056 952 892 1071 1009 927 1038 953 718 669 823 1082 1050 1074 919 899 869 597 554 647 676 619 540 520 503 472 -9999 -9999 -9999 -9999 -9999 -9999 -9999 -9999 -9999 -9999 -9999 -9999 -9999 -9999 -9999 -9999 -9999 -9999 -9999 -9999 -9999 -9999 -9999 -9999 -9999 -9999 -9999 -9999 -9999 -9999 -9999 -9999 -9999 -9999 -9999 -9999 -9999 -9999 -9999 -9999 -9999 -9999 -9999 -9999 -9999 -9999 -9999 -9999 -9999 -9999 -9999 -9999 -9999 -9999 -9999 -9999 -9999 -9999 -9999 -9999 -9999 -9999 -9999 -9999 -9999 -9999 -9999 -9999 -9999 -9999 -9999 -9999 -9999 -9999 -9999 -9999 -9999 -9999 -9999 -9999 -9999 -9999 -9999 -9999 -9999 -9999 -9999 -9999 -9999 -9999 -9999 -9999 -9999 -9999 -9999 -9999 -9999 -9999 -9999 -9999 -9999 -9999 -9999 -9999 -9999 -9999 -9999 -9999 -9999 -9999 -9999 -9999 -9999 -9999 -9999 -9999 -9999 -9999 -9999 -9999 -9999 -9999 -9999 -9999 -9999 -9999 -9999 -9999 -9999 -9999 -9999 -9999 -9999 -9999 -9999 -9999 -9999 -9999 -9999 -9999 -9999 -9999 -9999 -9999 -9999 -9999 -9999 -9999 -9999 -9999 -9999 -9999 -9999 -9999 -9999 -9999 -9999 -9999 -9999 -9999 -9999 -9999 -9999 -9999 -9999 -9999 -9999 -9999 -9999
-9999 -9999 -9999 -9999 -9999 -9999 -9999 -9999 -9999 -9999 -9999 -9999 -9999 -9999 -9999 -9999 -9999 462 407 424 483 432 -9999 -9999 -9999 -9999 -9999 516 477 490 612 632 793 637 524 525 514 453 526 563 469 456 421 467 452 426 371 386 399 457 664 754 973 1205 927 714 869 677 706 720 632 595 774 723 710 744 735 603 516 565 490 415 416 413 384 497 403 387 381 382 391 394 374 410 404 412 461 519 493 485 501 540 500 537 553 513 598 587 654 744 769 791 631 772 722 861 726 708 753 778 721 709 676 649 645 673 660 653 671 706 678 688 649 747 768 843 835 830 840 797 879 981 1054 1106 1106 1085 982 989 796 931 821 843 911 924 864 802 748 907 925 877 946 883 937 907 936 808 883 803 765 776 770 783 762 820 788 796 800 914 865 773 724 769 814 804 896 819 796 986 1079 949 924 827 897 795 879 970 995 1154 1123 878 941 862 1020 869 1060 1083 1051 974 910 876 723 802 774 679 845 910 649 622 624 518 551 768 810 810 745 613 645 789 781 742 733 731 720 605 721 723 752 766 756 758 753 735 754 745 759 765 755 743 763 759 783 786 778 789 798 809 833 831 833 839 829 851 815 847 895 881 919 866 905 926 911 918 944 939 940 947 968 983 958 964 1011 998 1016 1009 1016 1073 1097 1134 1142 1173 1213 1251 1248 1236 1232 1228 1227 1231 1222 1234 1248 1246 1256 1242 1236 1233 1234 1238 1221 1217 1224 1235 1231 1214 1213 1208 1215 1230 1229 1226 1230 1212 1232 1219 1230 1240 1226 1190 1186 1161 1171 1172 1136 1181 1106 1179 1299 1344 1336 1236 1106 1055 998 971 952 932 995 1111 1108 956 938 987 1175 1146 1135 1149 1235 1274 1125 1035 1107 1069 1014 981 1020 1007 1026 947 873 845 855 872 845 950 1003 1162 1145 1096 1082 947 840 874 790 641 705 789 962 836 947 973 818 872 1007 830 1073 917 780 605 810 949 947 839 723 660 571 787 843 728 593 500 -9999 -9999 -9999 -9999 -9999 -9999 -9999 -9999 -9999 -9999 -9999 -9999 -9999 -9999 -9999 -9999 -9999 -9999 -9999 -9999 -9999 -9999 -9999 -9999 -9999 -9999 -9999 -9999 -9999 -9999 -9999 -9999 -9999 -9999 -9999 -9999 -9999 -9999 -9999 -9999 -9999 -9999 -9999 -9999 -9999 -9999 -9999 -9999 -9999 -9999 -9999 -9999 -9999 -9999 -9999 -9999 -9999 -9999 -9999 -9999 -9999 -9999 -9999 -9999 -9999 -9999 -9999 -9999 -9999 -9999 -9999 -9999 -9999 -9999 -9999 -9999 -9999 -9999 -9999 -9999 -9999 -9999 -9999 -9999 -9999 -9999 -9999 -9999 -9999 -9999 -9999 -9999 -9999 -9999 -9999 -9999 -9999 -9999 -9999 -9999 -9999 -9999 -9999 -9999 -9999 -9999 -9999 -9999 -9999 -9999 -9999 -9999 -9999 -9999 -9999 -9999 -9999 -9999 -9999 -9999 -9999 -9999 -9999 -9999 -9999 -9999 -9999 -9999 -9999 -9999 -9999 -9999 -9999 -9999 -9999 -9999 -9999 -9999 -9999 -9999 -9999 -9999 -9999 -9999 -9999 -9999 -9999 -9999 -9999 -9999 -9999 -9999 -9999 -9999 -9999 -9999 -9999 -9999 -9999 -9999 -9999 -9999 -9999 -9999 -9999 -9999 -9999 -9999 -9999 -9999 -9999 -9999 -9999
-9999 -9999 -9999 -9999 -9999 -9999 -9999 -9999 -9999 -9999 -9999 -9999 -9999 -9999 -9999 -9999 -9999 456 417 465 477 458 -9999 -9999 -9999 -9999 -9999 -9999 -9999 -9999 -9999 -9999 -9999 -9999 646 591 703 608 508 436 424 481 440 457 443 385 385 381 499 636 699 834 996 972 894 622 832 669 602 585 620 631 572 644 578 626 586 466 469 433 410 409 405 391 405 400 418 384 380 410 398 388 422 396 428 482 658 660 682 551 603 738 523 529 605 693 713 862 857 851 744 745 795 743 716 729 723 661 691 652 655 643 636 620 674 659 643 709 728 659 786 627 782 847 979 878 923 835 1011 992 985 1197 1186 1195 1090 1092 1059 978 919 1051 1003 957 993 889 903 823 729 902 830 749 848 841 806 794 762 804 862 795 778 798 776 895 781 782 820 803 841 900 860 788 814 783 881 1013 1086 1062 1062 1077 1104 1076 979 988 940 841 793 916 869 970 987 809 956 1054 1042 939 1086 1133 939 836 875 856 943 879 846 857 704 621 572 596 526 548 585 684 737 693 700 554 845 772 781 753 730 735 740 655 661 659 780 772 757 724 740 751 749 748 754 767 768 778 782 780 790 791 801 802 853 780 820 792 838 850 863 852 863 869 851 896 889 872 895 900 937 923 942 952 937 957 990 972 979 986 976 1004 1013 1024 1054 1080 1136 1163 1206 1208 1240 1265 1264 1263 1253 1271 1258 1266 1244 1251 1255 1274 1286 1276 1262 1266 1273 1259 1225 1251 1268 1244 1258 1246 1234 1247 1236 1264 1279 1256 1267 1239 1249 1242 1244 1242 1224 1206 1182 1184 1185 1175 1143 1189 1199 1169 1135 1176 1217 1122 1085 1142 1179 1085 1056 949 1020 1179 1200 1183 1045 1075 1197 1095 1066 1010 1027 1088 1018 966 935 931 885 872 867 916 1086 1111 921 917 836 819 924 945 1183 1134 1005 940 951 1079 935 924 952 778 652 650 833 920 761 800 838 773 853 834 805 842 800 792 647 789 796 681 669 552 -9999 607 710 646 583 -9999 -9999 -9999 -9999 -9999 -9999 -9999 -9999 -9999 -9999 -9999 -9999 -9999 -9999 -9999 -9999 -9999 -9999 -9999 -9999 -9999 -9999 -9999 -9999 -9999 -9999 -9999 -9999 -9999 -9999 -9999 -9999 -9999 -9999 -9999 -9999 -9999 -9999 -9999 -9999 -9999 -9999 -9999 -9999 -9999 -9999 -9999 -9999 -9999 -9999 -9999 -9999 -9999 -9999 -9999 -9999 -9999 -9999 -9999 -9999 -9999 -9999 -9999 -9999 -9999 -9999 -9999 -9999 -9999 -9999 -9999 -9999 -9999 -9999 -9999 -9999 -9999 -9999 -9999 -9999 -9999 -9999 -9999 -9999 -9999 -9999 -9999 -9999 -9999 -9999 -9999 -9999 -9999 -9999 -9999 -9999 -9999 -9999 -9999 -9999 -9999 -9999 -9999 -9999 -9999 -9999 -9999 -9999 -9999 -9999 -9999 -9999 -9999 -9999 -9999 -9999 -9999 -9999 -9999 -9999 -9999 -9999 -9999 -9999 -9999 -9999 -9999 -9999 -9999 -9999 -9999 -9999 -9999 -9999 -9999 -9999 -9999 -9999 -9999 -9999 -9999 -9999 -9999 -9999 -9999 -9999 -9999 -9999 -9999 -9999 -9999 -9999 -9999 -9999 -9999 -9999 -9999 -9999 -9999 -9999 -9999 -9999 -9999 -9999 -9999 -9999 -9999 -9999 -9999 -9999 -9999 -9999 -9999 -9999
-9999 -9999 -9999 -9999 -9999 -9999 -9999 -9999 -9999 -9999 -9999 -9999 -9999 -9999 -9999 -9999 -9999 -9999 -9999 -9999 -9999 -9999 -9999 -9999 -9999 -9999 -9999 -9999 -9999 -9999 -9999 -9999 -9999 -9999 -9999 683 659 519 459 501 484 514 457 398 398 443 413 404 486 476 502 622 632 670 752 547 677 633 508 545 621 480 476 550 498 464 473 452 445 462 485 450 544 468 377 379 398 376 394 391 390 420 429 393 493 561 680 875 755 665 762 595 632 653 737 737 885 877 797 761 770 704 636 617 611 611 608 615 596 619 643 640 672 729 699 660 792 831 695 877 809 637 850 795 947 821 947 1027 1075 1126 1185 1215 1069 1048 1066 965 967 1032 1086 1122 929 879 854 807 925 774 682 825 694 816 911 801 734 713 722 781 796 861 862 945 828 940 840 787 987 883 953 1098 1013 839 924 938 970 1154 1124 1083 998 1044 985 1061 1037 937 887 884 794 886 881 973 822 876 849 879 893 934 924 1066 1185 1116 964 1083 1009 890 645 592 588 641 717 724 742 723 555 736 684 708 674 737 577 726 736 742 742 745 767 696 605 683 593 696 692 706 752 751 748 787 849 778 771 770 762 844 822 804 821 806 781 752 807 868 835 858 862 857 840 875 860 858 889 894 893 902 943 942 942 952 961 1009 1019 999 975 1013 1012 1006 1024 1040 1070 1102 1139 1185 1196 1248 1258 1288 1301 1310 1347 1328 1305 1299 1300 1292 1299 1305 1303 1308 1318 1314 1305 1278 1297 1288 1290 1294 1285 1270 1243 1288 1247 1288 1289 1280 1276 1261 1283 1264 1274 1260 1227 1226 1215 1215 1199 1190 1167 1177 1199 1187 1176 1209 1283 1155 1299 1321 1273 1279 1081 991 959 1050 1190 1169 1128 1114 1103 1001 1119 1035 1058 1009 997 1014 1008 962 1045 950 879 870 844 939 921 851 864 934 1029 1153 1205 1190 1028 905 818 987 928 796 855 734 658 669 669 762 843 695 814 820 735 714 679 653 657 671 553 833 738 572 -9999 -9999 -9999 -9999 -9999 -9999 -9999 -9999 -9999 -9999 -9999 -9999 -9999 -9999 -9999 -9999 -9999 -9999 -9999 -9999 -9999 -9999 -9999 -9999 -9999 -9999 -9999 -9999 -9999 -9999 -9999 -9999 -9999 -9999 -9999 -9999 -9999 -9999 -9999 -9999 -9999 -9999 -9999 -9999 -9999 -9999 -9999 -9999 -9999 -9999 -9999 -9999 -9999 -9999 -9999 -9999 -9999 -9999 -9999 -9999 -9999 -9999 -9999 -9999 -9999 -9999 -9999 -9999 -9999 -9999 -9999 -9999 -9999 -9999 -9999 -9999 -9999 -9999 -9999 -9999 -9999 -9999 -9999 -9999 -9999 -9999 -9999 -9999 -9999 -9999 -9999 -9999 -9999 -9999 -9999 -9999 -9999 -9999 -9999 -9999 -9999 -9999 -9999 -9999 -9999 -9999 -9999 -9999 -9999 -9999 -9999 -9999 -9999 -9999 -9999 -9999 -9999 -9999 -9999 -9999 -9999 -9999 -9999 -9999 -9999 -9999 -9999 -9999 -9999 -9999 -9999 -9999 -9999 -9999 -9999 -9999 -9999 -9999 -9999 -9999 -9999 -9999 -9999 -9999 -9999 -9999 -9999 -9999 -9999 -9999 -9999 -9999 -9999 -9999 -9999 -9999 -9999 -9999 -9999 -9999 -9999 -9999 -9999 -9999 -9999 -9999 -9999 -9999 -9999 -9999 -9999 -9999 -9999 -9999 -9999 -9999 -9999 -9999 -9999 -9999 -9999
-9999 -9999 -9999 -9999 -9999 -9999 -9999 -9999 -9999 -9999 -9999 -9999 -9999 -9999 -9999 -9999 -9999 -9999 -9999 -9999 -9999 -9999 -9999 -9999 -9999 -9999 -9999 -9999 -9999 -9999 -9999 -9999 -9999 -9999 -9999 741 555 500 449 485 492 487 417 437 488 416 397 484 574 557 590 694 643 561 515 566 501 519 464 507 578 567 462 484 452 553 408 409 413 424 464 592 474 390 380 377 385 404 432 386 433 555 582 438 497 633 851 860 803 807 834 740 683 737 755 844 814 808 654 708 607 583 592 596 638 656 705 704 654 698 726 683 652 645 652 671 677 735 773 942 801 673 747 854 743 868 812 941 967 977 1082 1201 1178 1018 1171 986 1083 976 918 1016 983 809 747 848 709 863 620 670 702 705 736 688 679 656 766 840 1039 1157 1131 1150 985 1068 964 929 922 1005 1091 1125 1119 995 1024 1079 1126 1100 1148 1186 1045 985 1017 1041 894 903 933 827 845 984 1058 929 982 981 864 750 728 847 954 860 840 969 946 823 765 759 660 598 580 731 861 749 836 709 665 767 716 593 746 737 750 766 656 695 732 750 760 766 768 594 791 718 739 816 771 764 759 852 828 991 821 796 782 865 871 807 812 808 812 825 750 833 828 859 868 872 849 881 883 873 870 897 895 922 929 929 936 950 957 1003 984 998 999 1001 1014 1038 1063 1064 1091 1089 1151 1207 1255 1278 1299 1333 1321 1349 1348 1388 1405 1387 1378 1379 1355 1388 1369 1373 1369 1365 1311 1338 1338 1331 1340 1333 1325 1333 1311 1323 1311 1285 1320 1318 1311 1315 1287 1305 1286 1276 1256 1243 1231 1236 1225 1203 1206 1180 1181 1203 1201 1172 1260 1291 1359 1319 1172 1123 1033 1118 980 1031 1196 1193 1070 1148 1089 1157 1251 1264 1148 1176 1073 1005 1040 1015 920 977 1051 986 988 865 844 880 931 994 1170 1144 1046 1164 1165 979 881 780 764 773 766 830 745 805 738 638 630 708 682 885 826 810 826 869 819 875 693 596 583 -9999 -9999 -9999 -9999 -9999 -9999 -9999 -9999 -9999 -9999 -9999 -9999 -9999 -9999 -9999 -9999 -9999 -9999 -9999 -9999 -9999 -9999 -9999 -9999 -9999 -9999 -9999 -9999 -9999 -9999 -9999 -9999 -9999 -9999 -9999 -9999 -9999 -9999 -9999 -9999 -9999 -9999 -9999 -9999 -9999 -9999 -9999 -9999 -9999 -9999 -9999 -9999 -9999 -9999 -9999 -9999 -9999 -9999 -9999 -9999 -9999 -9999 -9999 -9999 -9999 -9999 -9999 -9999 -9999 -9999 -9999 -9999 -9999 -9999 -9999 -9999 -9999 -9999 -9999 -9999 -9999 -9999 -9999 -9999 -9999 -9999 -9999 -9999 -9999 -9999 -9999 -9999 -9999 -9999 -9999 -9999 -9999 -9999 -9999 -9999 -9999 -9999 -9999 -9999 -9999 -9999 -9999 -9999 -9999 -9999 -9999 -9999 -9999 -9999 -9999 -9999 -9999 -9999 -9999 -9999 -9999 -9999 -9999 -9999 -9999 -9999 -9999 -9999 -9999 -9999 -9999 -9999 -9999 -9999 -9999 -9999 -9999 -9999 -9999 -9999 -9999 -9999 -9999 -9999 -9999 -9999 -9999 -9999 -9999 -9999 -9999 -9999 -9999 -9999 -9999 -9999 -9999 -9999 -9999 -9999 -9999 -9999 -9999 -9999 -9999 -9999 -9999 -9999 -9999 -9999 -9999 -9999 -9999 -9999 -9999 -9999 -9999 -9999 -9999 -9999 -9999 -9999
-9999 -9999 -9999 -9999 -9999 -9999 -9999 -9999 -9999 -9999 -9999 -9999 -9999 -9999 -9999 -9999 -9999 -9999 -9999 -9999 -9999 -9999 -9999 -9999 -9999 -9999 -9999 -9999 -9999 -9999 -9999 -9999 -9999 -9999 799 559 491 517 578 525 446 461 477 404 386 405 432 548 592 770 638 519 476 463 445 530 519 466 441 431 418 446 483 414 418 415 406 394 442 483 606 465 398 380 395 408 444 438 445 565 487 537 697 534 578 651 785 796 812 744 870 836 753 686 591 640 685 591 584 564 592 691 633 767 750 728 691 780 838 855 857 741 696 682 714 721 752 830 922 939 847 770 785 737 753 796 838 893 1074 1167 1105 1153 1054 893 1040 986 792 802 803 788 789 796 864 706 713 744 664 642 643 676 644 616 648 772 850 999 970 1067 1009 979 912 1036 807 1030 951 889 901 942 1029 1080 1155 1047 1038 952 906 1058 1066 1043 893 1010 987 887 920 901 895 942 948 924 939 956 792 850 690 733 896 946 797 904 772 726 697 821 795 644 673 701 829 974 727 749 636 747 703 601 674 736 763 767 725 771 763 719 766 765 745 768 748 750 765 827 928 770 844 798 848 917 1074 899 830 861 843 836 846 838 831 838 789 798 832 863 874 858 860 882 874 905 879 906 917 919 922 929 951 948 974 986 1005 1012 1029 1035 1030 1055 1089 1074 1099 1125 1153 1226 1272 1330 1316 1319 1340 1380 1391 1436 1455 1469 1477 1481 1436 1454 1464 1432 1408 1361 1379 1382 1377 1407 1376 1375 1366 1352 1362 1346 1356 1342 1328 1346 1340 1349 1332 1310 1300 1284 1271 1258 1258 1252 1232 1250 1217 1204 1215 1219 1223 1191 1211 1240 1338 1402 1324 1212 1133 1057 1005 1122 1293 1189 1156 1336 1257 1310 1400 1236 1207 1072 1102 1203 1074 969 1014 1107 1152 1091 1047 1003 885 980 1095 1068 1153 1106 1008 1013 906 924 873 919 931 965 797 927 886 999 854 739 782 626 700 788 793 756 877 948 920 874 580 572 533 -9999 -9999 -9999 -9999 -9999 -9999 -9999 -9999 -9999 -9999 -9999 -9999 -9999 -9999 -9999 -9999 -9999 -9999 -9999 -9999 -9999 -9999 -9999 -9999 -9999 -9999 -9999 -9999 -9999 -9999 -9999 -9999 -9999 -9999 -9999 -9999 -9999 -9999 -9999 -9999 -9999 -9999 -9999 -9999 -9999 -9999 -9999 -9999 -9999 -9999 -9999 -9999 -9999 -9999 -9999 -9999 -9999 -9999 -9999 -9999 -9999 -9999 -9999 -9999 -9999 -9999 -9999 -9999 -9999 -9999 -9999 -9999 -9999 -9999 -9999 -9999 -9999 -9999 -9999 -9999 -9999 -9999 -9999 -9999 -9999 -9999 -9999 -9999 -9999 -9999 -9999 -9999 -9999 -9999 -9999 -9999 -9999 -9999 -9999 -9999 -9999 -9999 -9999 -9999 -9999 -9999 -9999 -9999 -9999 -9999 -9999 -9999 -9999 -9999 -9999 -9999 -9999 -9999 -9999 -9999 -9999 -9999 -9999 -9999 -9999 -9999 -9999 -9999 -9999 -9999 -9999 -9999 -9999 -9999 -9999 -9999 -9999 -9999 -9999 -9999 -9999 -9999 -9999 -9999 -9999 -9999 -9999 -9999 -9999 -9999 -9999 -9999 -9999 -9999 -9999 -9999 -9999 -9999 -9999 -9999 -9999 -9999 -9999 -9999 -9999 -9999 -9999 -9999 -9999 -9999 -9999 -9999 -9999 -9999 -9999 -9999 -9999 -9999 -9999 -9999 -9999 -9999
-9999 -9999 -9999 -9999 -9999 -9999 -9999 -9999 -9999 -9999 -9999 -9999 -9999 -9999 -9999 -9999 -9999 -9999 -9999 -9999 -9999 -9999 -9999 -9999 -9999 -9999 -9999 -9999 -9999 -9999 -9999 -9999 733 696 534 460 504 451 468 542 600 506 433 394 429 544 686 625 550 735 678 559 570 527 595 471 447 427 411 480 425 419 421 455 449 400 414 391 445 383 402 393 384 394 428 462 465 548 634 597 607 689 695 603 493 601 723 776 921 824 793 813 726 635 588 546 561 670 586 657 812 823 777 778 701 835 775 910 781 742 718 660 695 757 785 804 904 927 926 800 905 916 721 764 782 930 1006 1052 1127 950 982 945 874 861 767 751 763 703 707 713 642 612 648 646 617 664 598 732 685 637 630 736 835 944 1071 900 889 982 845 973 943 837 777 792 872 904 1116 1123 1124 1192 1130 1111 964 914 945 966 827 943 1029 996 817 978 1019 933 889 996 933 888 965 1021 939 847 821 726 766 792 763 799 764 729 626 733 601 657 601 712 988 857 855 720 827 792 743 616 747 698 752 763 736 758 786 724 779 768 707 701 786 806 824 867 798 880 873 1005 872 897 1028 876 835 829 822 824 833 853 811 855 861 853 822 881 845 858 853 872 854 882 890 888 900 918 936 940 952 947 958 1001 1003 985 1001 1007 1050 1078 1093 1116 1100 1149 1175 1179 1239 1271 1283 1329 1354 1390 1441 1473 1519 1511 1539 1550 1556 1534 1497 1470 1499 1474 1439 1419 1455 1421 1429 1416 1406 1398 1413 1411 1394 1399 1374 1376 1355 1365 1333 1334 1321 1302 1286 1274 1267 1263 1232 1231 1234 1236 1214 1228 1249 1213 1235 1228 1279 1382 1321 1320 1318 1167 1020 1089 1288 1163 1220 1360 1398 1418 1370 1203 1138 1220 1336 1301 1224 1150 1139 1092 997 931 932 874 931 1000 1119 1010 1066 1184 1133 1126 1082 862 1012 1030 1058 965 930 897 1104 1107 876 959 788 756 629 744 760 766 735 769 684 609 581 727 -9999 -9999 -9999 -9999 -9999 -9999 -9999 -9999 -9999 -9999 -9999 -9999 -9999 -9999 -9999 -9999 -9999 -9999 -9999 -9999 -9999 -9999 -9999 -9999 -9999 -9999 -9999 -9999 -9999 -9999 -9999 -9999 -9999 -9999 -9999 -9999 -9999 -9999 -9999 -9999 -9999 -9999 -9999 -9999 -9999 -9999 -9999 -9999 -9999 -9999 -9999 -9999 -9999 -9999 -9999 -9999 -9999 -9999 -9999 -9999 -9999 -9999 -9999 -9999 -9999 -9999 -9999 -9999 -9999 -9999 -9999 -9999 -9999 -9999 -9999 -9999 -9999 -9999 -9999 -9999 -9999 -9999 -9999 -9999 -9999 -9999 -9999 -9999 -9999 -9999 -9999 -9999 -9999 -9999 -9999 -9999 -9999 -9999 -9999 -9999 -9999 -9999 -9999 -9999 -9999 -9999 -9999 -9999 -9999 -9999 -9999 -9999 -9999 -9999 -9999 -9999 -9999 -9999 -9999 -9999 -9999 -9999 -9999 -9999 -9999 -9999 -9999 -9999 -9999 -9999 -9999 -9999 -9999 -9999 -9999 -9999 -9999 -9999 -9999 -9999 -9999 -9999 -9999 -9999 -9999 -9999 -9999 -9999 -9999 -9999 -9999 -9999 -9999 -9999 -9999 -9999 -9999 -9999 -9999 -9999 -9999 -9999 -9999 -9999 -9999 -9999 -9999 -9999 -9999 -9999 -9999 -9999 -9999 -9999 -9999 -9999 -9999 -9999 -9999 -9999 -9999 -9999 -9999
-9999 -9999 -9999 -9999 -9999 -9999 -9999 -9999 -9999 -9999 -9999 -9999 -9999 -9999 -9999 -9999 -9999 -9999 -9999 -9999 -9999 -9999 -9999 -9999 -9999 -9999 -9999 -9999 641 639 -9999 759 632 546 486 444 465 435 440 600 537 427 399 413 513 537 608 685 655 763 640 589 696 649 561 548 567 447 454 415 422 426 417 398 410 401 398 374 407 381 398 409 413 407 422 451 598 692 902 627 733 848 719 577 620 794 916 831 711 762 642 723 605 565 549 594 689 632 692 598 619 720 850 839 881 738 759 747 687 640 677 697 704 841 777 754 815 992 975 1049 880 766 798 870 895 1029 1041 932 892 827 842 777 754 737 723 700 652 635 642 628 660 776 736 691 652 620 742 627 580 620 750 792 799 908 891 940 735 753 759 840 893 926 737 819 963 1080 1044 1065 1183 1111 994 993 955 923 810 864 807 909 874 884 832 809 834 881 917 1024 950 992 1075 877 766 789 811 725 717 758 723 755 609 605 689 601 629 697 613 696 796 809 737 734 761 828 675 765 774 761 769 785 765 786 779 790 751 780 765 679 797 791 831 839 807 941 1038 875 911 1213 1058 876 863 845 832 865 859 865 856 859 875 846 852 860 835 883 880 885 898 862 894 891 907 927 937 941 944 947 955 980 995 990 1013 1041 1066 1075 1112 1135 1143 1169 1180 1238 1254 1267 1326 1396 1410 1439 1458 1505 1542 1565 1568 1593 1614 1593 1557 1569 1554 1513 1538 1540 1511 1465 1495 1480 1447 1461 1457 1438 1441 1414 1410 1412 1379 1361 1351 1347 1339 1328 1310 1303 1287 1270 1263 1265 1247 1264 1242 1260 1247 1233 1246 1257 1282 1334 1318 1308 1212 1078 1057 1252 1312 1152 1265 1389 1377 1308 1227 1245 1373 1262 1222 1089 1047 1025 1011 972 1045 1001 934 871 975 1055 982 984 1016 1112 981 952 957 941 1061 1194 1133 987 1079 1022 1174 1015 947 1068 909 721 630 618 623 623 596 614 663 573 -9999 -9999 -9999 -9999 -9999 -9999 -9999 -9999 -9999 -9999 -9999 -9999 -9999 -9999 -9999 -9999 -9999 -9999 -9999 -9999 -9999 -9999 -9999 -9999 -9999 -9999 -9999 -9999 -9999 -9999 -9999 -9999 -9999 -9999 -9999 -9999 -9999 -9999 -9999 -9999 -9999 -9999 -9999 -9999 -9999 -9999 -9999 -9999 -9999 -9999 -9999 -9999 -9999 -9999 -9999 -9999 -9999 -9999 -9999 -9999 -9999 -9999 -9999 -9999 -9999 -9999 -9999 -9999 -9999 -9999 -9999 -9999 -9999 -9999 -9999 -9999 -9999 -9999 -9999 -9999 -9999 -9999 -9999 -9999 -9999 -9999 -9999 -9999 -9999 -9999 -9999 -9999 -9999 -9999 -9999 -9999 -9999 -9999 -9999 -9999 -9999 -9999 -9999 -9999 -9999 -9999 -9999 -9999 -9999 -9999 -9999 -9999 -9999 -9999 -9999 -9999 -9999 -9999 -9999 -9999 -9999 -9999 -9999 -9999 -9999 -9999 -9999 -9999 -9999 -9999 -9999 -9999 -9999 -9999 -9999 -9999 -9999 -9999 -9999 -9999 -9999 -9999 -9999 -9999 -9999 -9999 -9999 -9999 -9999 -9999 -9999 -9999 -9999 -9999 -9999 -9999 -9999 -9999 -9999 -9999 -9999 -9999 -9999 -9999 -9999 -9999 -9999 -9999 -9999 -9999 -9999 -9999 -9999 -9999 -9999 -9999 -9999 -9999 -9999 -9999 -9999 -9999 -9999 -9999 -9999
-9999 -9999 -9999 -9999 -9999 -9999 -9999 -9999 -9999 -9999 -9999 -9999 -9999 -9999 -9999 -9999 -9999 -9999 -9999 -9999 -9999 -9999 -9999 -9999 -9999 -9999 -9999 -9999 -9999 542 613 590 511 528 446 486 417 456 438 580 420 389 411 524 571 523 685 688 861 772 656 761 679 495 606 577 519 436 440 412 399 410 401 392 388 406 394 458 422 410 415 422 416 435 473 516 590 607 852 812 899 897 732 756 914 854 905 902 769 734 698 577 583 595 678 619 846 759 740 800 873 837 884 811 781 661 637 654 614 631 721 812 783 839 849 911 901 1071 961 892 775 863 811 987 969 933 830 780 743 722 707 705 690 694 686 671 676 676 705 711 787 759 859 720 630 599 564 569 602 611 816 776 738 797 876 803 678 772 723 844 809 788 824 986 876 938 1107 1108 1096 915 902 989 1087 953 959 826 766 837 853 878 773 978 1043 936 956 1009 992 1054 970 882 807 755 758 704 695 685 646 607 651 642 673 708 658 664 703 621 748 796 813 821 819 736 712 746 781 787 775 777 803 778 788 809 758 794 792 624 803 835 817 818 802 824 897 854 853 884 867 879 834 827 854 864 875 904 878 867 875 890 861 866 857 822 879 867 895 907 917 900 896 915 929 945 946 961 960 974 991 993 1011 1042 1067 1093 1106 1135 1191 1221 1231 1272 1296 1351 1352 1383 1490 1522 1582 1622 1618 1643 1676 1695 1685 1643 1656 1585 1603 1579 1604 1584 1536 1559 1577 1536 1531 1506 1499 1489 1473 1433 1432 1409 1395 1378 1368 1361 1353 1348 1342 1317 1301 1310 1271 1271 1279 1280 1273 1285 1253 1254 1242 1255 1247 1258 1207 1351 1235 1099 1188 1298 1337 1202 1321 1389 1387 1418 1330 1343 1291 1197 1006 979 1017 998 1021 1034 933 908 882 933 1032 1022 966 961 1052 1168 1199 1039 1071 1089 1147 1266 1166 1171 1188 1234 1198 1060 1026 883 822 814 743 757 636 -9999 -9999 -9999 -9999 -9999 -9999 -9999 -9999 -9999 -9999 -9999 -9999 -9999 -9999 -9999 -9999 -9999 -9999 -9999 -9999 -9999 -9999 -9999 -9999 -9999 -9999 -9999 -9999 -9999 -9999 -9999 -9999 -9999 -9999 -9999 -9999 -9999 -9999 -9999 -9999 -9999 -9999 -9999 -9999 -9999 -9999 -9999 -9999 -9999 -9999 -9999 -9999 -9999 -9999 -9999 -9999 -9999 -9999 -9999 -9999 -9999 -9999 -9999 -9999 -9999 -9999 -9999 -9999 -9999 -9999 -9999 -9999 -9999 -9999 -9999 -9999 -9999 -9999 -9999 -9999 -9999 -9999 -9999 -9999 -9999 -9999 -9999 -9999 -9999 -9999 -9999 -9999 -9999 -9999 -9999 -9999 -9999 -9999 -9999 -9999 -9999 -9999 -9999 -9999 -9999 -9999 -9999 -9999 -9999 -9999 -9999 -9999 -9999 -9999 -9999 -9999 -9999 -9999 -9999 -9999 -9999 -9999 -9999 -9999 -9999 -9999 -9999 -9999 -9999 -9999 -9999 -9999 -9999 -9999 -9999 -9999 -9999 -9999 -9999 -9999 -9999 -9999 -9999 -9999 -9999 -9999 -9999 -9999 -9999 -9999 -9999 -9999 -9999 -9999 -9999 -9999 -9999 -9999 -9999 -9999 -9999 -9999 -9999 -9999 -9999 -9999 -9999 -9999 -9999 -9999 -9999 -9999 -9999 -9999 -9999 -9999 -9999 -9999 -9999 -9999 -9999 -9999 -9999 -9999 -9999 -9999 -9999 -9999 -9999 -9999
-9999 -9999 -9999 -9999 -9999 -9999 -9999 -9999 -9999 -9999 -9999 -9999 -9999 -9999 -9999 -9999 -9999 -9999 -9999 -9999 -9999 -9999 -9999 -9999 -9999 -9999 -9999 -9999 -9999 697 565 456 476 450 442 413 410 405 402 406 402 466 489 457 533 608 680 805 774 632 608 635 540 506 439 485 488 550 427 419 421 383 389 400 386 397 401 435 472 423 458 446 508 495 546 611 755 813 969 852 747 880 880 895 821 828 774 786 716 650 576 572 669 726 758 493 665 746 709 727 739 725 731 609 609 629 600 600 654 651 651 711 749 781 848 932 1020 931 904 887 1001 810 804 867 876 882 969 870 784 800 823 832 873 848 977 876 916 798 782 742 732 656 734 687 609 578 587 553 626 839 763 808 805 798 781 696 801 711 793 715 745 757 897 783 764 919 921 959 1121 1044 969 931 998 955 887 897 803 760 831 783 899 888 808 887 1016 895 984 882 919 821 733 711 733 814 757 804 675 708 705 692 616 715 781 757 726 684 772 828 774 769 739 681 762 755 802 798 785 796 807 824 808 800 810 797 802 789 788 638 633 758 819 699 720 827 851 846 840 813 826 855 862 873 883 904 887 870 876 877 865 879 860 878 876 883 891 898 913 914 927 936 933 946 938 945 967 983 998 1042 1029 1046 1079 1099 1145 1172 1193 1249 1276 1324 1397 1425 1451 1437 1519 1569 1649 1655 1714 1764 1764 1774 1788 1757 1764 1663 1678 1657 1668 1616 1601 1638 1632 1632 1598 1588 1559 1506 1477 1472 1475 1430 1421 1402 1393 1398 1373 1366 1353 1337 1343 1313 1291 1295 1286 1287 1278 1271 1257 1264 1255 1242 1253 1312 1275 1181 1134 1209 1297 1236 1341 1277 1245 1343 1354 1314 1207 1132 1061 1013 1014 1134 1184 1118 1128 1117 1052 1063 1018 970 955 948 940 936 951 997 1074 1066 1090 1172 1073 1204 1198 1075 1110 1058 1113 962 853 929 870 792 686 633 -9999 -9999 -9999 -9999 -9999 -9999 -9999 -9999 -9999 -9999 -9999 -9999 -9999 -9999 -9999 -9999 -9999 -9999 -9999 -9999 -9999 -9999 -9999 -9999 -9999 -9999 -9999 -9999 -9999 -9999 -9999 -9999 -9999 -9999 -9999 -9999 -9999 -9999 -9999 -9999 -9999 -9999 -9999 -9999 -9999 -9999 -9999 -9999 -9999 -9999 -9999 -9999 -9999 -9999 -9999 -9999 -9999 -9999 -9999 -9999 -9999 -9999 -9999 -9999 -9999 -9999 -9999 -9999 -9999 -9999 -9999 -9999 -9999 -9999 -9999 -9999 -9999 -9999 -9999 -9999 -9999 -9999 -9999 -9999 -9999 -9999 -9999 -9999 -9999 -9999 -9999 -9999 -9999 -9999 -9999 -9999 -9999 -9999 -9999 -9999 -9999 -9999 -9999 -9999 -9999 -9999 -9999 -9999 -9999 -9999 -9999 -9999 -9999 -9999 -9999 -9999 -9999 -9999 -9999 -9999 -9999 -9999 -9999 -9999 -9999 -9999 -9999 -9999 -9999 -9999 -9999 -9999 -9999 -9999 -9999 -9999 -9999 -9999 -9999 -9999 -9999 -9999 -9999 -9999 -9999 -9999 -9999 -9999 -9999 -9999 -9999 -9999 -9999 -9999 -9999 -9999 -9999 -9999 -9999 -9999 -9999 -9999 -9999 -9999 -9999 -9999 -9999 -9999 -9999 -9999 -9999 -9999 -9999 -9999 -9999 -9999 -9999 -9999 -9999 -9999 -9999 -9999 -9999 -9999 -9999 -9999 -9999 -9999 -9999 -9999 -9999
-9999 -9999 -9999 -9999 -9999 -9999 -9999 -9999 -9999 -9999 -9999 -9999 -9999 -9999 -9999 -9999 -9999 -9999 -9999 -9999 -9999 -9999 -9999 -9999 -9999 -9999 -9999 -9999 701 522 477 444 449 424 456 404 404 407 410 420 430 519 477 441 567 539 557 729 705 707 616 590 560 462 499 450 430 414 412 405 401 454 407 404 444 438 394 446 567 442 517 518 631 699 567 779 892 970 831 939 886 752 870 781 706 731 698 630 601 636 657 625 686 629 628 558 679 713 636 647 693 682 608 567 575 591 682 708 673 700 907 785 770 746 760 911 975 932 846 913 837 896 893 922 894 943 1023 937 938 1007 1026 992 936 973 957 811 751 719 819 785 880 776 677 580 628 556 558 533 632 778 1033 807 764 709 615 790 822 788 749 743 753 702 745 837 1062 946 846 1023 964 978 943 905 842 772 807 795 789 755 786 753 835 928 924 890 1053 973 1030 795 787 717 691 675 777 855 785 780 628 818 825 768 781 763 766 763 848 732 726 766 768 775 743 724 759 790 783 799 797 793 821 816 826 828 798 802 804 812 819 837 816 826 840 761 717 768 844 765 730 826 841 864 842 848 866 865 900 878 870 869 891 878 884 891 878 872 891 904 901 909 915 949 956 955 958 987 987 987 998 1037 1058 1079 1095 1114 1133 1194 1211 1289 1339 1377 1411 1477 1517 1523 1511 1594 1640 1717 1768 1827 1814 1878 1906 1913 1854 1744 1765 1780 1736 1643 1667 1711 1725 1716 1647 1623 1671 1589 1555 1515 1496 1483 1465 1451 1429 1420 1396 1383 1372 1358 1344 1333 1314 1305 1309 1302 1276 1271 1264 1273 1256 1248 1240 1317 1301 1258 1148 1279 1382 1341 1329 1386 1319 1283 1341 1239 1175 1083 1107 1148 1033 1269 1272 1255 1190 1218 1141 1009 975 981 1032 987 955 958 948 929 934 945 1046 1154 1120 980 1054 1057 1047 978 1036 876 847 813 762 718 711 724 -9999 -9999 -9999 -9999 -9999 -9999 -9999 -9999 -9999 -9999 -9999 -9999 -9999 -9999 -9999 -9999 -9999 -9999 -9999 -9999 -9999 -9999 -9999 -9999 -9999 -9999 -9999 -9999 -9999 -9999 -9999 -9999 -9999 -9999 -9999 -9999 -9999 -9999 -9999 -9999 -9999 -9999 -9999 -9999 -9999 -9999 -9999 -9999 -9999 -9999 -9999 -9999 -9999 -9999 -9999 -9999 -9999 -9999 -9999 -9999 -9999 -9999 -9999 -9999 -9999 -9999 -9999 -9999 -9999 -9999 -9999 -9999 -9999 -9999 -9999 -9999 -9999 -9999 -9999 -9999 -9999 -9999 -9999 -9999 -9999 -9999 -9999 -9999 -9999 -9999 -9999 -9999 -9999 -9999 -9999 -9999 -9999 -9999 -9999 -9999 -9999 -9999 -9999 -9999 -9999 -9999 -9999 -9999 -9999 -9999 -9999 -9999 -9999 -9999 -9999 -9999 -9999 -9999 -9999 -9999 -9999 -9999 -9999 -9999 -9999 -9999 -9999 -9999 -9999 -9999 -9999 -9999 -9999 -9999 -9999 -9999 -9999 -9999 -9999 -9999 -9999 -9999 -9999 -9999 -9999 -9999 -9999 -9999 -9999 -9999 -9999 -9999 -9999 -9999 -9999 -9999 -9999 -9999 -9999 -9999 -9999 -9999 -9999 -9999 -9999 -9999 -9999 -9999 -9999 -9999 -9999 -9999 -9999 -9999 -9999 -9999 -9999 -9999 -9999 -9999 -9999 -9999 -9999 -9999 -9999 -9999 -9999 -9999 -9999 -9999 -9999
-9999 -9999 -9999 -9999 -9999 -9999 -9999 -9999 -9999 -9999 -9999 -9999 -9999 -9999 -9999 -9999 -9999 -9999 -9999 -9999 -9999 -9999 -9999 -9999 -9999 -9999 -9999 679 599 505 476 582 489 483 415 414 430 416 437 457 560 610 453 552 567 691 786 703 626 637 585 567 534 525 453 431 422 425 401 437 442 444 403 421 449 505 421 412 446 486 523 616 600 607 774 810 726 883 777 972 908 863 776 829 807 703 626 632 657 796 682 638 554 540 521 554 568 585 539 542 546 572 587 603 625 624 695 696 820 718 739 715 760 874 884 886 977 891 885 850 878 993 950 874 954 887 1043 1073 1041 1017 992 909 812 725 755 786 911 802 730 842 667 695 703 632 599 543 537 577 599 843 766 767 702 603 593 690 734 662 802 696 844 840 950 1004 1027 1005 923 882 1008 1123 983 996 994 962 925 959 866 834 718 762 836 892 863 976 872 795 771 796 747 771 821 858 772 689 673 703 790 613 713 822 712 729 751 820 822 749 770 794 862 781 755 705 783 784 789 798 808 794 806 812 827 827 829 838 766 810 826 839 827 840 834 839 667 695 702 841 800 802 860 878 880 900 914 910 898 876 889 894 896 898 892 895 873 855 888 883 888 909 914 929 951 948 947 970 993 1014 1035 1050 1060 1080 1104 1114 1167 1191 1236 1277 1320 1382 1436 1487 1541 1570 1582 1670 1717 1729 1814 1864 1972 1985 2002 1988 1870 1910 1957 1882 1937 1894 1718 1822 1811 1789 1698 1656 1654 1612 1594 1556 1526 1505 1485 1471 1447 1427 1402 1391 1381 1368 1350 1364 1348 1325 1330 1300 1297 1283 1280 1281 1288 1254 1259 1274 1291 1336 1223 1291 1375 1357 1335 1382 1358 1331 1378 1396 1236 1119 1070 1227 1257 1217 1237 1126 1046 1046 1088 983 1011 1014 973 973 963 963 943 935 930 913 937 974 978 954 1071 1016 978 941 933 965 914 921 890 807 847 843 669 -9999 -9999 -9999 -9999 -9999 -9999 -9999 -9999 -9999 -9999 -9999 -9999 -9999 -9999 -9999 -9999 -9999 -9999 -9999 -9999 -9999 -9999 -9999 -9999 -9999 -9999 -9999 -9999 -9999 -9999 -9999 -9999 -9999 -9999 -9999 -9999 -9999 -9999 -9999 -9999 -9999 -9999 -9999 -9999 -9999 -9999 -9999 -9999 -9999 -9999 -9999 -9999 -9999 -9999 -9999 -9999 -9999 -9999 -9999 -9999 -9999 -9999 -9999 -9999 -9999 -9999 -9999 -9999 -9999 -9999 -9999 -9999 -9999 -9999 -9999 -9999 -9999 -9999 -9999 -9999 -9999 -9999 -9999 -9999 -9999 -9999 -9999 -9999 -9999 -9999 -9999 -9999 -9999 -9999 -9999 -9999 -9999 -9999 -9999 -9999 -9999 -9999 -9999 -9999 -9999 -9999 -9999 -9999 -9999 -9999 -9999 -9999 -9999 -9999 -9999 -9999 -9999 -9999 -9999 -9999 -9999 -9999 -9999 -9999 -9999 -9999 -9999 -9999 -9999 -9999 -9999 -9999 -9999 -9999 -9999 -9999 -9999 -9999 -9999 -9999 -9999 -9999 -9999 -9999 -9999 -9999 -9999 -9999 -9999 -9999 -9999 -9999 -9999 -9999 -9999 -9999 -9999 -9999 -9999 -9999 -9999 -9999 -9999 -9999 -9999 -9999 -9999 -9999 -9999 -9999 -9999 -9999 -9999 -9999 -9999 -9999 -9999 -9999 -9999 -9999 -9999 -9999 -9999 -9999 -9999 -9999 -9999 -9999 -9999 -9999
-9999 -9999 -9999 -9999 -9999 -9999 -9999 -9999 -9999 -9999 -9999 -9999 -9999 -9999 -9999 -9999 -9999 -9999 -9999 -9999 -9999 -9999 -9999 -9999 -9999 -9999 -9999 554 493 498 457 461 432 417 413 425 436 435 436 498 508 681 545 475 610 774 644 518 567 619 484 552 477 456 445 428 413 429 464 415 414 458 415 458 490 559 468 439 432 481 578 585 756 854 781 879 725 712 733 968 860 664 799 710 657 693 767 753 764 757 711 684 611 541 574 777 762 742 675 554 614 651 650 638 725 802 763 713 742 668 713 802 767 903 857 871 904 941 871 978 981 962 892 802 762 837 1016 913 790 934 825 763 806 807 754 704 695 809 888 631 686 640 647 657 525 525 551 550 556 565 637 648 578 605 716 604 637 684 826 779 755 899 941 909 980 1026 1022 1050 1137 961 980 1019 990 945 869 764 767 740 746 849 976 945 910 818 871 902 976 925 837 832 929 810 730 833 813 737 789 689 666 766 742 779 721 823 866 870 799 924 826 794 742 785 764 741 780 785 813 793 816 792 811 823 819 838 831 818 799 796 810 852 857 838 864 712 856 852 847 799 844 860 871 878 885 880 876 870 872 872 896 904 885 891 888 867 877 892 908 908 924 925 942 960 975 977 991 1018 1037 1051 1067 1090 1088 1127 1154 1195 1247 1282 1333 1394 1474 1526 1591 1610 1693 1749 1745 1910 2082 2152 2129 2091 2153 2169 1961 2122 2124 2119 1944 1918 1909 1851 1825 1798 1735 1719 1697 1683 1647 1604 1555 1536 1524 1503 1475 1454 1420 1393 1381 1372 1351 1338 1332 1321 1320 1309 1303 1285 1298 1279 1279 1281 1264 1287 1367 1315 1361 1329 1350 1366 1337 1347 1338 1365 1317 1334 1198 1128 1209 1233 1124 1209 1262 1161 1103 1037 1020 1000 987 986 975 970 -9999 -9999 960 934 931 926 936 896 932 1002 1142 992 945 912 912 941 1111 986 901 902 828 784 -9999 -9999 -9999 -9999 -9999 -9999 -9999 -9999 -9999 -9999 -9999 -9999 -9999 -9999 -9999 -9999 -9999 -9999 -9999 -9999 -9999 -9999 -9999 -9999 -9999 -9999 -9999 -9999 -9999 -9999 -9999 -9999 -9999 -9999 -9999 -9999 -9999 -9999 -9999 -9999 -9999 -9999 -9999 -9999 -9999 -9999 -9999 -9999 -9999 -9999 -9999 -9999 -9999 -9999 -9999 -9999 -9999 -9999 -9999 -9999 -9999 -9999 -9999 -9999 -9999 -9999 -9999 -9999 -9999 -9999 -9999 -9999 -9999 -9999 -9999 -9999 -9999 -9999 -9999 -9999 -9999 -9999 -9999 -9999 -9999 -9999 -9999 -9999 -9999 -9999 -9999 -9999 -9999 -9999 -9999 -9999 -9999 -9999 -9999 -9999 -9999 -9999 -9999 -9999 -9999 -9999 -9999 -9999 -9999 -9999 -9999 -9999 -9999 -9999 -9999 -9999 -9999 -9999 -9999 -9999 -9999 -9999 -9999 -9999 -9999 -9999 -9999 -9999 -9999 -9999 -9999 -9999 -9999 -9999 -9999 -9999 -9999 -9999 -9999 -9999 -9999 -9999 -9999 -9999 -9999 -9999 -9999 -9999 -9999 -9999 -9999 -9999 -9999 -9999 -9999 -9999 -9999 -9999 -9999 -9999 -9999 -9999 -9999 -9999 -9999 -9999 -9999 -9999 -9999 -9999 -9999 -9999 -9999 -9999 -9999 -9999 -9999 -9999 -9999 -9999 -9999 -9999 -9999 -9999 -9999 -9999 -9999 -9999 -9999 -9999 -9999
-9999 -9999 -9999 -9999 -9999 -9999 -9999 -9999 -9999 -9999 -9999 -9999 -9999 -9999 -9999 -9999 -9999 -9999 -9999 -9999 -9999 -9999 -9999 -9999 -9999 690 525 463 490 470 455 485 415 426 440 435 432 464 468 503 576 689 668 575 613 782 652 679 559 486 551 469 469 419 424 433 480 477 446 411 465 459 393 494 529 479 446 477 492 421 644 600 822 802 705 685 751 565 770 680 620 632 614 760 747 756 739 671 616 538 632 516 566 641 617 718 896 741 622 555 748 771 705 819 698 800 700 634 673 677 773 733 872 804 932 1060 962 989 968 982 971 1103 909 781 735 773 837 961 748 721 702 650 852 814 715 729 707 663 702 660 588 648 647 564 538 528 564 615 583 690 793 720 770 797 728 775 677 743 718 726 796 799 802 893 846 992 1002 1133 1088 1096 1029 854 859 992 939 785 784 723 851 1056 989 897 870 795 725 809 819 804 820 836 869 932 793 833 742 740 640 650 710 643 796 784 748 834 940 907 920 792 777 775 704 765 794 796 802 800 791 800 827 836 827 815 826 844 847 845 830 855 841 856 853 866 859 699 760 847 861 833 790 841 879 852 872 870 857 852 894 869 890 892 905 861 902 884 896 916 924 940 946 949 947 964 986 1013 1025 1035 1034 1056 1083 1109 1102 1126 1143 1178 1249 1312 1351 1428 1463 1583 1620 1667 1698 1743 1852 1901 1958 2096 2208 2325 2296 2373 1975 2322 2354 2200 2030 2041 1936 1928 1876 1811 1762 1812 1790 1716 1682 1634 1586 1562 1526 1490 1503 1444 1418 1409 1387 1377 1359 1342 1337 1335 1315 1324 1324 1315 1321 1294 1292 1293 1276 1269 1329 1377 1373 1311 1328 1355 1321 1374 1374 1328 1195 1169 1130 1102 1076 1073 1060 1052 1044 1045 1032 1127 1105 1033 1004 992 961 -9999 -9999 -9999 -9999 -9999 931 -9999 -9999 -9999 -9999 966 1001 1083 969 936 917 936 989 1014 910 849 877 803 -9999 -9999 -9999 -9999 -9999 -9999 -9999 -9999 -9999 -9999 -9999 -9999 -9999 -9999 -9999 -9999 -9999 -9999 -9999 -9999 -9999 -9999 -9999 -9999 -9999 -9999 -9999 -9999 -9999 -9999 -9999 -9999 -9999 -9999 -9999 -9999 -9999 -9999 -9999 -9999 -9999 -9999 -9999 -9999 -9999 -9999 -9999 -9999 -9999 -9999 -9999 -9999 -9999 -9999 -9999 -9999 -9999 -9999 -9999 -9999 -9999 -9999 -9999 -9999 -9999 -9999 -9999 -9999 -9999 -9999 -9999 -9999 -9999 -9999 -9999 -9999 -9999 -9999 -9999 -9999 -9999 -9999 -9999 -9999 -9999 -9999 -9999 -9999 -9999 -9999 -9999 -9999 -9999 -9999 -9999 -9999 -9999 -9999 -9999 -9999 -9999 -9999 -9999 -9999 -9999 -9999 -9999 -9999 -9999 -9999 -9999 -9999 -9999 -9999 -9999 -9999 -9999 -9999 -9999 -9999 -9999 -9999 -9999 -9999 -9999 -9999 -9999 -9999 -9999 -9999 -9999 -9999 -9999 -9999 -9999 -9999 -9999 -9999 -9999 -9999 -9999 -9999 -9999 -9999 -9999 -9999 -9999 -9999 -9999 -9999 -9999 -9999 -9999 -9999 -9999 -9999 -9999 -9999 -9999 -9999 -9999 -9999 -9999 -9999 -9999 -9999 -9999 -9999 -9999 -9999 -9999 -9999 -9999 -9999 -9999 -9999 -9999 -9999 -9999 -9999 -9999 -9999 -9999 -9999 -9999 -9999 -9999 -9999 -9999 -9999 -9999
-9999 -9999 -9999 -9999 -9999 -9999 -9999 -9999 -9999 -9999 -9999 -9999 -9999 -9999 -9999 -9999 -9999 -9999 -9999 -9999 -9999 -9999 -9999 -9999 661 482 452 470 486 456 422 424 426 430 447 450 451 491 483 631 668 668 606 711 679 670 664 552 515 466 431 428 434 468 443 489 473 442 412 406 449 447 391 423 545 474 471 485 566 531 459 499 665 628 587 577 548 543 572 626 689 640 762 686 589 604 630 651 596 649 535 654 651 624 684 851 720 638 573 578 563 758 787 692 668 700 608 617 649 685 724 742 865 939 1057 1090 937 842 851 810 896 889 899 876 735 652 840 745 785 654 594 656 792 668 667 618 609 553 641 619 609 640 626 548 490 559 560 656 614 650 776 790 860 708 695 696 704 637 864 849 806 956 822 785 954 987 1097 1080 924 892 1053 990 870 783 838 879 751 715 743 764 769 727 680 727 722 677 683 684 658 672 649 650 885 884 779 674 739 848 793 733 723 828 853 936 849 789 778 796 752 705 717 782 772 753 750 807 788 794 818 832 826 818 818 835 854 834 849 854 850 861 869 879 888 822 734 838 839 865 837 797 841 843 882 856 886 879 883 882 895 916 900 907 908 925 890 930 928 943 931 955 971 1004 1015 1015 1021 1056 1060 1068 1064 1081 1096 1114 1155 1169 1214 1311 1351 1386 1443 1557 1598 1626 1738 1762 1888 1763 2043 2107 2213 2422 2461 2546 2202 2587 2524 2320 2216 2127 2090 1967 1962 1965 1861 1897 1837 1761 1705 1662 1610 1586 1554 1524 1481 1470 1444 1472 1414 1402 1401 1378 1367 1348 1336 1331 1326 1323 1306 1287 1288 1275 1280 1245 1274 1358 1356 1229 1188 1176 1209 1356 1429 1397 1314 1145 1099 1097 1076 -9999 -9999 -9999 -9999 -9999 1019 1015 1008 1006 984 980 -9999 -9999 -9999 -9999 -9999 -9999 -9999 -9999 -9999 -9999 -9999 -9999 864 852 -9999 942 836 828 930 944 894 869 781 713 -9999 -9999 -9999 -9999 -9999 -9999 -9999 -9999 -9999 -9999 -9999 -9999 -9999 -9999 -9999 -9999 -9999 -9999 -9999 -9999 -9999 -9999 -9999 -9999 -9999 -9999 -9999 -9999 -9999 -9999 -9999 -9999 -9999 -9999 -9999 -9999 -9999 -9999 -9999 -9999 -9999 -9999 -9999 -9999 -9999 -9999 -9999 -9999 -9999 -9999 -9999 -9999 -9999 -9999 -9999 -9999 -9999 -9999 -9999 -9999 -9999 -9999 -9999 -9999 -9999 -9999 -9999 -9999 -9999 -9999 -9999 -9999 -9999 -9999 -9999 -9999 -9999 -9999 -9999 -9999 -9999 -9999 -9999 -9999 -9999 -9999 -9999 -9999 -9999 -9999 -9999 -9999 -9999 -9999 -9999 -9999 -9999 -9999 -9999 -9999 -9999 -9999 -9999 -9999 -9999 -9999 -9999 -9999 -9999 -9999 -9999 -9999 -9999 -9999 -9999 -9999 -9999 -9999 -9999 -9999 -9999 -9999 -9999 -9999 -9999 -9999 -9999 -9999 -9999 -9999 -9999 -9999 -9999 -9999 -9999 -9999 -9999 -9999 -9999 -9999 -9999 -9999 -9999 -9999 -9999 -9999 -9999 -9999 -9999 -9999 -9999 -9999 -9999 -9999 -9999 -9999 -9999 -9999 -9999 -9999 -9999 -9999 -9999 -9999 -9999 -9999 -9999 -9999 -9999 -9999 -9999 -9999 -9999 -9999 -9999 -9999 -9999 -9999 -9999 -9999 -9999 -9999 -9999 -9999 -9999 -9999 -9999 -9999 -9999 -9999 -9999
-9999 -9999 -9999 -9999 -9999 -9999 -9999 -9999 -9999 -9999 -9999 -9999 -9999 -9999 -9999 -9999 -9999 -9999 -9999 -9999 -9999 -9999 -9999 599 526 560 477 533 451 439 426 425 427 452 450 461 453 592 630 549 662 714 761 710 670 536 530 472 456 451 464 490 537 479 521 485 468 444 446 436 443 528 447 445 492 459 477 583 608 758 663 488 568 503 538 583 611 682 736 740 714 825 842 691 595 594 499 666 613 583 626 763 769 711 595 712 702 744 630 681 596 569 570 706 686 605 612 739 706 740 820 914 1010 1033 902 938 776 750 820 940 851 819 687 775 754 602 602 744 945 766 702 618 744 650 669 713 577 523 601 604 698 557 586 527 517 549 631 607 749 750 815 735 690 841 849 811 742 715 662 696 673 745 869 955 987 1133 1155 1002 1125 955 805 843 907 976 859 905 951 995 799 759 685 714 827 712 720 794 735 731 767 763 733 699 660 689 657 703 724 758 885 1015 730 919 969 939 1045 947 790 757 764 780 872 749 747 771 785 782 787 808 805 816 829 828 820 837 861 846 838 872 884 866 877 881 887 864 881 850 716 835 872 856 867 853 854 890 885 868 880 900 921 911 914 915 912 914 923 908 931 939 962 972 999 1003 1015 1034 1057 1054 1057 1063 1083 1116 1111 1128 1147 1180 1193 1243 1329 1405 1450 1536 1566 1590 1759 1808 1763 1945 2024 2044 2258 2429 2562 2198 2196 2194 2200 2280 -9999 -9999 -9999 -9999 -9999 -9999 -9999 -9999 -9999 -9999 -9999 -9999 -9999 -9999 -9999 -9999 -9999 -9999 -9999 -9999 -9999 -9999 -9999 -9999 -9999 -9999 -9999 -9999 -9999 -9999 1303 1312 1289 1285 1257 1257 1226 1250 1242 1230 1205 1183 1164 1186 1290 1247 1180 1245 1153 1100 -9999 -9999 -9999 -9999 -9999 -9999 -9999 -9999 999 986 -9999 -9999 -9999 -9999 -9999 -9999 -9999 -9999 -9999 -9999 -9999 -9999 -9999 -9999 -9999 -9999 -9999 -9999 -9999 -9999 789 873 899 795 -9999 -9999 -9999 -9999 -9999 -9999 -9999 -9999 -9999 -9999 -9999 -9999 -9999 -9999 -9999 -9999 -9999 -9999 -9999 -9999 -9999 -9999 -9999 -9999 -9999 -9999 -9999 -9999 -9999 -9999 -9999 -9999 -9999 -9999 -9999 -9999 -9999 -9999 -9999 -9999 -9999 -9999 -9999 -9999 -9999 -9999 -9999 -9999 -9999 -9999 -9999 -9999 -9999 -9999 -9999 -9999 -9999 -9999 -9999 -9999 -9999 -9999 -9999 -9999 -9999 -9999 -9999 -9999 -9999 -9999 -9999 -9999 -9999 -9999 -9999 -9999 -9999 -9999 -9999 -9999 -9999 -9999 -9999 -9999 -9999 -9999 -9999 -9999 -9999 -9999 -9999 -9999 -9999 -9999 -9999 -9999 -9999 -9999 -9999 -9999 -9999 -9999 -9999 -9999 -9999 -9999 -9999 -9999 -9999 -9999 -9999 -9999 -9999 -9999 -9999 -9999 -9999 -9999 -9999 -9999 -9999 -9999 -9999 -9999 -9999 -9999 -9999 -9999 -9999 -9999 -9999 -9999 -9999 -9999 -9999 -9999 -9999 -9999 -9999 -9999 -9999 -9999 -9999 -9999 -9999 -9999 -9999 -9999 -9999 -9999 -9999 -9999 -9999 -9999 -9999 -9999 -9999 -9999 -9999 -9999 -9999 -9999 -9999 -9999 -9999 -9999 -9999 -9999 -9999 -9999 -9999 -9999 -9999 -9999 -9999 -9999 -9999 -9999 -9999 -9999 -9999 -9999 -9999 -9999 -9999 -9999 -9999 -9999 -9999 -9999 -9999 -9999 -9999
-9999 -9999 -9999 -9999 -9999 -9999 -9999 -9999 -9999 -9999 -9999 -9999 -9999 -9999 -9999 -9999 -9999 -9999 -9999 -9999 -9999 -9999 -9999 634 545 526 518 539 493 436 430 440 435 469 552 487 497 490 495 648 623 783 776 638 561 515 545 504 486 507 508 565 565 499 477 459 448 439 413 447 438 469 367 436 445 468 542 607 588 551 516 629 668 698 740 675 860 919 803 611 849 772 871 759 690 603 574 579 479 609 633 686 791 702 664 660 643 735 743 608 671 675 658 621 628 672 712 711 689 683 787 815 860 767 754 727 742 813 972 989 1004 821 664 617 738 868 592 775 720 660 888 722 596 546 618 613 585 514 526 604 654 644 512 540 538 533 538 548 647 660 603 712 793 870 837 854 792 839 735 779 762 732 816 848 893 960 883 939 892 910 877 850 789 805 881 836 808 810 734 710 734 724 811 746 784 851 831 830 881 791 773 744 797 768 671 761 786 887 779 906 755 850 924 867 862 851 874 836 824 808 766 741 781 790 774 750 753 767 781 807 780 826 783 787 788 848 876 856 862 875 896 897 893 896 861 841 840 790 849 871 851 975 900 886 887 872 879 888 885 903 922 923 919 931 929 933 922 934 954 982 982 1013 1024 1049 1060 1057 1083 1081 1094 1102 1117 1127 1148 1181 1198 1283 1332 1394 1475 1584 1679 1716 1818 1878 1970 1863 1891 2182 2183 2330 2341 2200 -9999 -9999 -9999 -9999 -9999 -9999 -9999 -9999 -9999 -9999 -9999 -9999 -9999 -9999 -9999 -9999 -9999 -9999 -9999 -9999 -9999 -9999 -9999 -9999 -9999 -9999 -9999 -9999 -9999 -9999 -9999 -9999 -9999 -9999 -9999 -9999 -9999 -9999 -9999 -9999 -9999 -9999 1220 1215 1204 1216 1167 1158 1194 1151 1173 1226 1204 1115 -9999 -9999 -9999 -9999 -9999 -9999 -9999 -9999 -9999 -9999 -9999 -9999 -9999 -9999 -9999 -9999 -9999 -9999 -9999 -9999 -9999 -9999 -9999 -9999 -9999 -9999 -9999 -9999 -9999 -9999 -9999 -9999 -9999 -9999 -9999 -9999 -9999 -9999 -9999 -9999 -9999 -9999 -9999 -9999 -9999 -9999 -9999 -9999 -9999 -9999 -9999 -9999 -9999 -9999 -9999 -9999 -9999 -9999 -9999 -9999 -9999 -9999 -9999 -9999 -9999 -9999 -9999 -9999 -9999 -9999 -9999 -9999 -9999 -9999 -9999 -9999 -9999 -9999 -9999 -9999 -9999 -9999 -9999 -9999 -9999 -9999 -9999 -9999 -9999 -9999 -9999 -9999 -9999 -9999 -9999 -9999 -9999 -9999 -9999 -9999 -9999 -9999 -9999 -9999 -9999 -9999 -9999 -9999 -9999 -9999 -9999 -9999 -9999 -9999 -9999 -9999 -9999 -9999 -9999 -9999 -9999 -9999 -9999 -9999 -9999 -9999 -9999 -9999 -9999 -9999 -9999 -9999 -9999 -9999 -9999 -9999 -9999 -9999 -9999 -9999 -9999 -9999 -9999 -9999 -9999 -9999 -9999 -9999 -9999 -9999 -9999 -9999 -9999 -9999 -9999 -9999 -9999 -9999 -9999 -9999 -9999 -9999 -9999 -9999 -9999 -9999 -9999 -9999 -9999 -9999 -9999 -9999 -9999 -9999 -9999 -9999 -9999 -9999 -9999 -9999 -9999 -9999 -9999 -9999 -9999 -9999 -9999 -9999 -9999 -9999 -9999 -9999 -9999 -9999 -9999 -9999 -9999 -9999 -9999 -9999 -9999 -9999 -9999 -9999 -9999 -9999 -9999 -9999 -9999 -9999 -9999 -9999 -9999 -9999 -9999 -9999 -9999 -9999 -9999 -9999 -9999 -9999 -9999 -9999 -9999 -9999 -9999
-9999 -9999 -9999 -9999 -9999 -9999 -9999 -9999 -9999 -9999 -9999 -9999 -9999 -9999 -9999 -9999 -9999 -9999 -9999 -9999 -9999 -9999 657 671 694 571 578 563 479 440 477 484 455 474 534 602 501 548 544 532 639 789 666 613 599 576 660 722 656 565 677 585 554 485 448 480 428 438 456 467 463 513 428 419 446 530 509 582 602 632 668 754 734 849 873 808 917 860 643 608 579 757 773 719 579 613 484 543 630 736 739 717 698 606 646 689 661 698 733 611 795 709 645 734 758 654 788 818 847 736 945 943 925 921 846 643 680 753 799 788 852 866 837 833 670 691 678 535 623 684 630 740 689 592 499 498 581 552 573 523 629 523 547 586 524 570 543 573 623 668 681 690 791 833 722 852 805 801 916 1030 804 872 841 901 930 1120 1007 823 887 851 877 783 838 811 799 730 719 709 769 736 737 853 909 808 838 909 830 773 829 868 866 849 772 826 811 774 852 994 848 936 903 859 858 829 823 781 850 796 763 834 831 735 754 739 784 775 799 806 815 812 779 792 816 852 851 801 822 834 886 866 879 903 907 904 940 907 855 757 889 759 856 922 868 857 876 860 871 879 897 882 879 907 921 942 960 938 956 945 977 1003 991 1030 1030 1045 1049 1064 1089 1089 1106 1135 1149 1152 1166 1206 1230 1267 1307 1378 1465 1540 1564 1607 1738 1702 1741 1795 1951 2101 2371 2491 -9999 -9999 -9999 -9999 -9999 -9999 -9999 -9999 -9999 -9999 -9999 -9999 -9999 -9999 -9999 -9999 -9999 -9999 -9999 -9999 -9999 -9999 -9999 -9999 -9999 -9999 -9999 -9999 -9999 -9999 -9999 -9999 -9999 -9999 -9999 -9999 -9999 -9999 -9999 -9999 -9999 -9999 -9999 -9999 -9999 -9999 -9999 -9999 -9999 -9999 -9999 -9999 -9999 1124 -9999 -9999 -9999 -9999 -9999 -9999 -9999 -9999 -9999 -9999 -9999 -9999 -9999 -9999 -9999 -9999 -9999 -9999 -9999 -9999 -9999 -9999 -9999 -9999 -9999 -9999 -9999 -9999 -9999 -9999 -9999 -9999 -9999 -9999 -9999 -9999 -9999 -9999 -9999 -9999 -9999 -9999 -9999 -9999 -9999 -9999 -9999 -9999 -9999 -9999 -9999 -9999 -9999 -9999 -9999 -9999 -9999 -9999 -9999 -9999 -9999 -9999 -9999 -9999 -9999 -9999 -9999 -9999 -9999 -9999 -9999 -9999 -9999 -9999 -9999 -9999 -9999 -9999 -9999 -9999 -9999 -9999 -9999 -9999 -9999 -9999 -9999 -9999 -9999 -9999 -9999 -9999 -9999 -9999 -9999 -9999 -9999 -9999 -9999 -9999 -9999 -9999 -9999 -9999 -9999 -9999 -9999 -9999 -9999 -9999 -9999 -9999 -9999 -9999 -9999 -9999 -9999 -9999 -9999 -9999 -9999 -9999 -9999 -9999 -9999 -9999 -9999 -9999 -9999 -9999 -9999 -9999 -9999 -9999 -9999 -9999 -9999 -9999 -9999 -9999 -9999 -9999 -9999 -9999 -9999 -9999 -9999 -9999 -9999 -9999 -9999 -9999 -9999 -9999 -9999 -9999 -9999 -9999 -9999 -9999 -9999 -9999 -9999 -9999 -9999 -9999 -9999 -9999 -9999 -9999 -9999 -9999 -9999 -9999 -9999 -9999 -9999 -9999 -9999 -9999 -9999 -9999 -9999 -9999 -9999 -9999 -9999 -9999 -9999 -9999 -9999 -9999 -9999 -9999 -9999 -9999 -9999 -9999 -9999 -9999 -9999 -9999 -9999 -9999 -9999 -9999 -9999 -9999 -9999 -9999 -9999 -9999 -9999 -9999 -9999 -9999 -9999 -9999 -9999 -9999 -9999 -9999 -9999 -9999 -9999 -9999 -9999 -9999 -9999
-9999 -9999 -9999 -9999 -9999 -9999 -9999 -9999 -9999 -9999 -9999 -9999 -9999 -9999 -9999 -9999 -9999 -9999 -9999 -9999 709 554 552 564 516 605 485 566 465 447 448 450 495 596 686 659 554 603 705 627 709 695 655 632 769 902 962 820 610 564 534 486 477 490 465 453 423 460 438 543 539 425 433 457 451 426 510 546 522 645 659 716 885 929 840 770 839 731 669 712 574 695 657 588 608 529 517 637 842 746 628 601 527 608 647 700 645 775 678 728 668 755 764 639 792 792 858 829 927 941 753 901 773 771 655 585 725 647 736 765 772 912 799 638 673 673 554 603 494 588 573 608 605 594 495 499 557 501 556 555 518 574 645 585 562 564 611 759 802 703 772 839 801 731 763 825 904 967 892 878 1017 1169 952 1062 1031 865 912 788 710 918 893 879 789 921 946 795 794 814 793 823 779 761 951 872 908 933 857 782 799 769 749 791 828 802 865 885 952 1004 943 962 1019 961 841 799 786 781 781 771 769 761 744 755 736 791 784 800 827 847 886 876 765 796 831 938 982 805 857 833 849 860 857 874 914 998 1007 901 817 821 757 851 761 863 861 878 869 888 863 896 904 890 900 893 914 920 939 940 950 954 959 979 998 1012 1019 1028 1044 1065 1090 1107 1133 1136 1158 1171 1175 1212 1239 1282 1317 1374 1437 1509 1595 1574 1618 1843 1848 1899 1989 2037 2143 2264 2298 -9999 -9999 -9999 -9999 -9999 -9999 -9999 -9999 -9999 -9999 -9999 -9999 -9999 -9999 -9999 -9999 -9999 -9999 -9999 -9999 -9999 -9999 -9999 -9999 -9999 -9999 -9999 -9999 -9999 -9999 -9999 -9999 -9999 -9999 -9999 -9999 -9999 -9999 -9999 -9999 -9999 -9999 -9999 -9999 -9999 -9999 -9999 -9999 -9999 -9999 -9999 -9999 -9999 -9999 -9999 -9999 -9999 -9999 -9999 -9999 -9999 -9999 -9999 -9999 -9999 -9999 -9999 -9999 -9999 -9999 -9999 -9999 -9999 -9999 -9999 -9999 -9999 -9999 -9999 -9999 -9999 -9999 -9999 -9999 -9999 -9999 -9999 -9999 -9999 -9999 -9999 -9999 -9999 -9999 -9999 -9999 -9999 -9999 -9999 -9999 -9999 -9999 -9999 -9999 -9999 -9999 -9999 -9999 -9999 -9999 -9999 -9999 -9999 -9999 -9999 -9999 -9999 -9999 -9999 -9999 -9999 -9999 -9999 -9999 -9999 -9999 -9999 -9999 -9999 -9999 -9999 -9999 -9999 -9999 -9999 -9999 -9999 -9999 -9999 -9999 -9999 -9999 -9999 -9999 -9999 -9999 -9999 -9999 -9999 -9999 -9999 -9999 -9999 -9999 -9999 -9999 -9999 -9999 -9999 -9999 -9999 -9999 -9999 -9999 -9999 -9999 -9999 -9999 -9999 -9999 -9999 -9999 -9999 -9999 -9999 -9999 -9999 -9999 -9999 -9999 -9999 -9999 -9999 -9999 -9999 -9999 -9999 -9999 -9999 -9999 -9999 -9999 -9999 -9999 -9999 -9999 -9999 -9999 -9999 -9999 -9999 -9999 -9999 -9999 -9999 -9999 -9999 -9999 -9999 -9999 -9999 -9999 -9999 -9999 -9999 -9999 -9999 -9999 -9999 -9999 -9999 -9999 -9999 -9999 -9999 -9999 -9999 -9999 -9999 -9999 -9999 -9999 -9999 -9999 -9999 -9999 -9999 -9999 -9999 -9999 -9999 -9999 -9999 -9999 -9999 -9999 -9999 -9999 -9999 -9999 -9999 -9999 -9999 -9999 -9999 -9999 -9999 -9999 -9999 -9999 -9999 -9999 -9999 -9999 -9999 -9999 -9999 -9999 -9999 -9999 -9999 -9999 -9999 -9999 -9999 -9999 -9999 -9999 -9999 -9999 -9999 -9999
-9999 -9999 -9999 -9999 -9999 -9999 -9999 -9999 -9999 -9999 -9999 -9999 -9999 -9999 -9999 -9999 -9999 -9999 748 652 695 692 557 658 596 476 543 440 442 465 486 512 499 565 748 854 669 689 884 928 1074 846 650 775 837 1023 717 633 580 546 508 497 495 446 450 463 457 499 463 543 457 435 488 425 473 564 522 477 502 525 571 757 806 784 772 618 677 620 750 895 708 472 466 491 454 429 466 640 617 579 504 511 520 592 665 737 737 696 853 809 805 831 788 790 720 791 965 1091 1048 884 786 731 594 674 566 580 654 659 849 851 898 721 667 858 666 682 645 587 576 505 526 575 566 545 476 554 622 645 652 616 670 619 619 669 597 607 628 716 648 780 784 652 642 800 851 937 963 1089 887 928 1059 1046 988 871 840 727 749 668 753 943 949 899 946 863 855 826 857 817 861 743 855 729 911 908 821 783 885 856 727 846 858 742 785 896 728 764 916 833 975 917 794 891 866 902 815 804 778 788 788 809 782 761 775 802 791 823 933 1021 945 823 809 804 833 882 859 816 829 806 832 834 819 846 913 1026 863 837 810 862 825 851 843 852 827 868 873 881 878 904 902 893 913 913 920 908 929 933 952 962 975 957 983 1006 1013 1028 1036 1063 1084 1096 1114 1113 1130 1174 1199 1260 1296 1305 1384 1404 1458 1492 1552 1632 1556 1606 1759 1803 1863 1965 1922 1974 2190 2210 -9999 -9999 -9999 -9999 -9999 -9999 -9999 -9999 -9999 -9999 -9999 -9999 -9999 -9999 -9999 -9999 -9999 -9999 -9999 -9999 -9999 -9999 -9999 -9999 -9999 -9999 -9999 -9999 -9999 -9999 -9999 -9999 -9999 -9999 -9999 -9999 -9999 -9999 -9999 -9999 -9999 -9999 -9999 -9999 -9999 -9999 -9999 -9999 -9999 -9999 -9999 -9999 -9999 -9999 -9999 -9999 -9999 -9999 -9999 -9999 -9999 -9999 -9999 -9999 -9999 -9999 -9999 -9999 -9999 -9999 -9999 -9999 -9999 -9999 -9999 -9999 -9999 -9999 -9999 -9999 -9999 -9999 -9999 -9999 -9999 -9999 -9999 -9999 -9999 -9999 -9999 -9999 -9999 -9999 -9999 -9999 -9999 -9999 -9999 -9999 -9999 -9999 -9999 -9999 -9999 -9999 -9999 -9999 -9999 -9999 -9999 -9999 -9999 -9999 -9999 -9999 -9999 -9999 -9999 -9999 -9999 -9999 -9999 -9999 -9999 -9999 -9999 -9999 -9999 -9999 -9999 -9999 -9999 -9999 -9999 -9999 -9999 -9999 -9999 -9999 -9999 -9999 -9999 -9999 -9999 -9999 -9999 -9999 -9999 -9999 -9999 -9999 -9999 -9999 -9999 -9999 -9999 -9999 -9999 -9999 -9999 -9999 -9999 -9999 -9999 -9999 -9999 -9999 -9999 -9999 -9999 -9999 -9999 -9999 -9999 -9999 -9999 -9999 -9999 -9999 -9999 -9999 -9999 -9999 -9999 -9999 -9999 -9999 -9999 -9999 -9999 -9999 -9999 -9999 -9999 -9999 -9999 -9999 -9999 -9999 -9999 -9999 -9999 -9999 -9999 -9999 -9999 -9999 -9999 -9999 -9999 -9999 -9999 -9999 -9999 -9999 -9999 -9999 -9999 -9999 -9999 -9999 -9999 -9999 -9999 -9999 -9999 -9999 -9999 -9999 -9999 -9999 -9999 -9999 -9999 -9999 -9999 -9999 -9999 -9999 -9999 -9999 -9999 -9999 -9999 -9999 -9999 -9999 -9999 -9999 -9999 -9999 -9999 -9999 -9999 -9999 -9999 -9999 -9999 -9999 -9999 -9999 -9999 -9999 -9999 -9999 -9999 -9999 -9999 -9999 -9999 -9999 -9999 -9999 -9999 -9999 -9999 -9999 -9999 -9999 -9999
-9999 -9999 -9999 -9999 -9999 -9999 -9999 -9999 -9999 -9999 -9999 -9999 -9999 -9999 -9999 -9999 717 657 601 621 548 565 588 497 474 452 445 456 458 474 489 514 556 715 792 807 677 701 768 935 701 701 665 560 695 762 826 756 671 539 601 554 473 457 481 505 455 562 532 527 471 432 488 473 485 496 586 594 507 494 556 649 681 633 700 660 581 693 704 698 657 532 521 454 462 497 523 554 546 498 554 584 568 754 680 795 879 737 854 946 964 914 853 722 776 898 1057 1019 850 748 676 564 569 589 517 629 723 785 809 870 682 724 841 594 550 541 622 598 570 531 480 520 510 503 497 627 549 593 613 691 641 608 665 556 553 558 624 621 653 728 652 700 701 856 962 802 1013 1146 1011 981 1193 1171 988 853 786 910 790 640 976 892 815 852 821 989 1030 995 918 891 868 912 891 850 768 858 928 929 793 641 789 955 893 798 820 872 887 652 779 730 956 981 842 839 697 860 913 813 814 819 791 805 802 783 820 850 856 889 936 868 827 805 791 791 836 879 940 857 858 859 824 872 841 897 1067 1019 889 808 846 864 852 895 880 843 852 798 863 836 865 886 866 904 903 906 894 916 929 926 933 972 978 990 1000 1021 1042 1044 1064 1064 1090 1092 1119 1120 1152 1200 1237 1260 1287 1338 1357 1395 1446 1437 1451 1479 1537 1678 1692 1743 1774 1763 1825 1976 2004 2080 2227 2327 -9999 -9999 -9999 -9999 -9999 -9999 -9999 -9999 -9999 -9999 -9999 -9999 -9999 -9999 -9999 -9999 -9999 -9999 -9999 -9999 -9999 -9999 -9999 -9999 -9999 -9999 -9999 -9999 -9999 -9999 -9999 -9999 -9999 -9999 -9999 -9999 -9999 -9999 -9999 -9999 -9999 -9999 -9999 -9999 -9999 -9999 -9999 -9999 -9999 -9999 -9999 -9999 -9999 -9999 -9999 -9999 -9999 -9999 -9999 -9999 -9999 -9999 -9999 -9999 -9999 -9999 -9999 -9999 -9999 -9999 -9999 -9999 -9999 -9999 -9999 -9999 -9999 -9999 -9999 -9999 -9999 -9999 -9999 -9999 -9999 -9999 -9999 -9999 -9999 -9999 -9999 -9999 -9999 -9999 -9999 -9999 -9999 -9999 -9999 -9999 -9999 -9999 -9999 -9999 -9999 -9999 -9999 -9999 -9999 -9999 -9999 -9999 -9999 -9999 -9999 -9999 -9999 -9999 -9999 -9999 -9999 -9999 -9999 -9999 -9999 -9999 -9999 -9999 -9999 -9999 -9999 -9999 -9999 -9999 -9999 -9999 -9999 -9999 -9999 -9999 -9999 -9999 -9999 -9999 -9999 -9999 -9999 -9999 -9999 -9999 -9999 -9999 -9999 -9999 -9999 -9999 -9999 -9999 -9999 -9999 -9999 -9999 -9999 -9999 -9999 -9999 -9999 -9999 -9999 -9999 -9999 -9999 -9999 -9999 -9999 -9999 -9999 -9999 -9999 -9999 -9999 -9999 -9999 -9999 -9999 -9999 -9999 -9999 -9999 -9999 -9999 -9999 -9999 -9999 -9999 -9999 -9999 -9999 -9999 -9999 -9999 -9999 -9999 -9999 -9999 -9999 -9999 -9999 -9999 -9999 -9999 -9999 -9999 -9999 -9999 -9999 -9999 -9999 -9999 -9999 -9999 -9999 -9999 -9999 -9999 -9999 -9999 -9999 -9999 -9999 -9999 -9999 -9999 -9999 -9999 -9999 -9999 -9999 -9999 -9999 -9999 -9999 -9999 -9999 -9999 -9999 -9999 -9999 -9999 -9999 -9999 -9999 -9999 -9999 -9999 -9999 -9999 -9999 -9999 -9999 -9999 -9999 -9999 -9999 -9999 -9999 -9999 -9999 -9999 -9999 -9999 -9999 -9999 -9999 -9999 -9999 -9999 -9999 -9999
-9999 -9999 -9999 -9999 -9999 -9999 -9999 -9999 -9999 -9999 -9999 -9999 -9999 -9999 -9999 -9999 639 567 609 640 577 565 482 465 538 454 495 483 472 497 629 711 731 688 781 677 712 923 957 867 952 891 711 578 589 716 673 675 591 517 537 465 482 542 464 500 556 504 475 464 493 548 469 490 479 537 660 662 553 530 520 517 555 600 678 557 540 698 537 625 648 600 501 539 474 424 467 461 497 596 565 581 667 695 881 960 1013 864 892 1082 898 876 753 665 781 909 829 772 744 768 672 613 620 592 499 708 670 770 791 751 837 730 638 626 588 604 619 518 496 507 504 463 482 494 509 537 505 577 619 552 626 572 522 534 536 544 549 577 586 583 611 676 741 845 921 954 1085 1105 1134 1252 1185 1046 826 843 1014 821 758 605 854 759 660 751 847 979 914 919 1078 1100 1002 962 947 799 791 918 1037 974 759 578 760 777 699 662 766 787 845 727 916 661 785 730 792 744 776 772 790 805 886 860 865 941 988 830 850 1062 1136 1002 876 819 800 817 840 812 955 1100 1046 937 832 931 896 875 915 991 949 925 842 840 885 1020 972 935 883 870 870 873 790 877 873 861 865 866 883 891 914 932 931 925 957 979 980 998 1009 1029 1039 1042 1052 1042 1082 1111 1116 1138 1167 1175 1212 1239 1293 1337 1379 1397 1420 1427 1436 1497 1544 1580 1654 1675 1692 1731 1835 1880 1876 2069 2130 2150 2158 -9999 -9999 -9999 -9999 -9999 -9999 -9999 -9999 -9999 -9999 -9999 -9999 -9999 -9999 -9999 -9999 -9999 -9999 -9999 -9999 -9999 -9999 -9999 -9999 -9999 -9999 -9999 -9999 -9999 -9999 -9999 -9999 -9999 -9999 -9999 -9999 -9999 -9999 -9999 -9999 -9999 -9999 -9999 -9999 -9999 -9999 -9999 -9999 -9999 -9999 -9999 -9999 -9999 -9999 -9999 -9999 -9999 -9999 -9999 -9999 -9999 -9999 -9999 -9999 -9999 -9999 -9999 -9999 -9999 -9999 -9999 -9999 -9999 -9999 -9999 -9999 -9999 -9999 -9999 -9999 -9999 -9999 -9999 -9999 -9999 -9999 -9999 -9999 -9999 -9999 -9999 -9999 -9999 -9999 -9999 -9999 -9999 -9999 -9999 -9999 -9999 -9999 -9999 -9999 -9999 -9999 -9999 -9999 -9999 -9999 -9999 -9999 -9999 -9999 -9999 -9999 -9999 -9999 -9999 -9999 -9999 -9999 -9999 -9999 -9999 -9999 -9999 -9999 -9999 -9999 -9999 -9999 -9999 -9999 -9999 -9999 -9999 -9999 -9999 -9999 -9999 -9999 -9999 -9999 -9999 -9999 -9999 -9999 -9999 -9999 -9999 -9999 -9999 -9999 -9999 -9999 -9999 -9999 -9999 -9999 -9999 -9999 -9999 -9999 -9999 -9999 -9999 -9999 -9999 -9999 -9999 -9999 -9999 -9999 -9999 -9999 -9999 -9999 -9999 -9999 -9999 -9999 -9999 -9999 -9999 -9999 -9999 -9999 -9999 -9999 -9999 -9999 -9999 -9999 -9999 -9999 -9999 -9999 -9999 -9999 -9999 -9999 -9999 -9999 -9999 -9999 -9999 -9999 -9999 -9999 -9999 -9999 -9999 -9999 -9999 -9999 -9999 -9999 -9999 -9999 -9999 -9999 -9999 -9999 -9999 -9999 -9999 -9999 -9999 -9999 -9999 -9999 -9999 -9999 -9999 -9999 -9999 -9999 -9999 -9999 -9999 -9999 -9999 -9999 -9999 -9999 -9999 -9999 -9999 -9999 -9999 -9999 -9999 -9999 -9999 -9999 -9999 -9999 -9999 -9999 -9999 -9999 -9999 -9999 -9999 -9999 -9999 -9999 -9999 -9999 -9999 -9999 -9999 -9999 -9999 -9999 -9999 -9999
-9999 -9999 -9999 -9999 -9999 -9999 -9999 -9999 -9999 -9999 -9999 -9999 -9999 -9999 -9999 -9999 -9999 -9999 580 556 506 490 500 561 485 473 513 487 572 634 643 799 753 710 647 631 712 948 768 858 935 864 724 622 595 518 622 502 501 463 475 472 549 489 526 449 528 428 460 626 484 496 514 488 491 551 682 729 692 591 614 567 663 651 643 609 552 524 540 546 510 466 549 549 477 457 466 521 607 621 583 697 746 870 910 1091 1139 948 1015 888 775 737 690 624 688 732 669 732 650 623 689 651 631 653 518 569 611 718 682 780 785 681 589 621 578 600 501 536 484 480 489 498 477 610 591 666 675 509 556 592 578 600 590 555 604 593 551 586 607 683 637 790 850 982 948 917 1039 1180 1339 1157 1089 941 1066 988 909 909 755 618 719 788 793 841 887 917 895 904 911 893 910 1067 940 844 900 937 842 756 820 563 597 749 633 589 594 604 558 574 580 668 754 755 773 766 812 752 903 933 1030 990 839 951 1061 927 942 958 936 887 832 841 842 845 905 918 1049 1137 949 906 890 1023 1055 920 889 975 1096 918 821 842 988 1147 1069 957 896 839 885 876 865 790 821 889 873 898 903 906 902 917 935 932 937 966 961 983 999 1015 1031 1051 1046 1074 1095 1108 1134 1161 1165 1189 1223 1251 1304 1368 1386 1416 1486 1431 1435 1483 1510 1572 1577 1621 1683 1672 1689 1775 1752 1926 2015 1924 2089 2095 1881 -9999 -9999 -9999 -9999 -9999 -9999 -9999 -9999 -9999 -9999 -9999 -9999 -9999 -9999 -9999 -9999 -9999 -9999 -9999 -9999 -9999 -9999 -9999 -9999 -9999 -9999 -9999 -9999 -9999 -9999 -9999 -9999 -9999 -9999 -9999 -9999 -9999 -9999 -9999 -9999 -9999 -9999 -9999 -9999 -9999 -9999 -9999 -9999 -9999 -9999 -9999 -9999 -9999 -9999 -9999 -9999 -9999 -9999 -9999 -9999 -9999 -9999 -9999 -9999 -9999 -9999 -9999 -9999 -9999 -9999 -9999 -9999 -9999 -9999 -9999 -9999 -9999 -9999 -9999 -9999 -9999 -9999 -9999 -9999 -9999 -9999 -9999 -9999 -9999 -9999 -9999 -9999 -9999 -9999 -9999 -9999 -9999 -9999 -9999 -9999 -9999 -9999 -9999 -9999 -9999 -9999 -9999 -9999 -9999 -9999 -9999 -9999 -9999 -9999 -9999 -9999 -9999 -9999 -9999 -9999 -9999 -9999 -9999 -9999 -9999 -9999 -9999 -9999 -9999 -9999 -9999 -9999 -9999 -9999 -9999 -9999 -9999 -9999 -9999 -9999 -9999 -9999 -9999 -9999 -9999 -9999 -9999 -9999 -9999 -9999 -9999 -9999 -9999 -9999 -9999 -9999 -9999 -9999 -9999 -9999 -9999 -9999 -9999 -9999 -9999 -9999 -9999 -9999 -9999 -9999 -9999 -9999 -9999 -9999 -9999 -9999 -9999 -9999 -9999 -9999 -9999 -9999 -9999 -9999 -9999 -9999 -9999 -9999 -9999 -9999 -9999 -9999 -9999 -9999 -9999 -9999 -9999 -9999 -9999 -9999 -9999 -9999 -9999 -9999 -9999 -9999 -9999 -9999 -9999 -9999 -9999 -9999 -9999 -9999 -9999 -9999 -9999 -9999 -9999 -9999 -9999 -9999 -9999 -9999 -9999 -9999 -9999 -9999 -9999 -9999 -9999 -9999 -9999 -9999 -9999 -9999 -9999 -9999 -9999 -9999 -9999 -9999 -9999 -9999 -9999 -9999 -9999 -9999 -9999 -9999 -9999 -9999 -9999 -9999 -9999 -9999 -9999 -9999 -9999 -9999 -9999 -9999 -9999 -9999 -9999 -9999 -9999 -9999 -9999 -9999 -9999 -9999 -9999 -9999 -9999 -9999
-9999 -9999 -9999 -9999 -9999 -9999 -9999 -9999 -9999 -9999 -9999 -9999 -9999 -9999 -9999 -9999 -9999 -9999 -9999 -9999 -9999 606 554 609 506 502 560 569 551 716 732 760 712 642 618 693 847 834 661 819 757 815 650 621 569 512 490 473 489 459 524 549 654 567 525 527 593 521 475 500 501 546 539 585 503 505 627 684 601 688 586 589 552 527 510 647 683 610 655 633 520 495 523 508 466 473 474 494 565 549 686 782 815 1038 1022 1036 898 907 764 931 773 668 748 685 583 584 637 648 683 673 589 791 676 648 559 573 692 720 782 760 795 690 710 678 603 517 468 483 475 485 488 485 553 701 672 708 613 575 503 541 678 546 560 556 560 613 600 560 598 694 779 754 782 949 887 976 1145 1285 1084 963 1091 923 899 857 830 783 763 844 564 732 858 907 852 1016 950 877 771 792 877 937 952 1022 911 944 943 859 797 862 620 777 516 526 685 643 676 797 768 840 797 679 693 911 1097 957 923 913 1123 1044 893 999 1068 1261 1112 917 875 850 922 1009 920 950 969 983 885 1011 1017 966 922 1112 1043 913 909 938 1051 980 862 848 959 1074 1140 957 897 844 833 882 867 878 843 820 897 909 900 918 931 936 940 930 918 943 966 982 994 1003 1017 1007 1017 1071 1088 1115 1133 1162 1168 1185 1199 1234 1286 1352 1363 1398 1402 1418 1442 1460 1480 1520 1540 1565 1648 1663 1693 1728 1762 1819 1795 1845 2040 1950 1933 -9999 -9999 -9999 -9999 -9999 -9999 -9999 -9999 -9999 -9999 -9999 -9999 -9999 -9999 -9999 -9999 -9999 -9999 -9999 -9999 -9999 -9999 -9999 -9999 -9999 -9999 -9999 -9999 -9999 -9999 -9999 -9999 -9999 -9999 -9999 -9999 -9999 -9999 -9999 -9999 -9999 -9999 -9999 -9999 -9999 -9999 -9999 -9999 -9999 -9999 -9999 -9999 -9999 -9999 -9999 -9999 -9999 -9999 -9999 -9999 -9999 -9999 -9999 -9999 -9999 -9999 -9999 -9999 -9999 -9999 -9999 -9999 -9999 -9999 -9999 -9999 -9999 -9999 -9999 -9999 -9999 -9999 -9999 -9999 -9999 -9999 -9999 -9999 -9999 -9999 -9999 -9999 -9999 -9999 -9999 -9999 -9999 -9999 -9999 -9999 -9999 -9999 -9999 -9999 -9999 -9999 -9999 -9999 -9999 -9999 -9999 -9999 -9999 -9999 -9999 -9999 -9999 -9999 -9999 -9999 -9999 -9999 -9999 -9999 -9999 -9999 -9999 -9999 -9999 -9999 -9999 -9999 -9999 -9999 -9999 -9999 -9999 -9999 -9999 -9999 -9999 -9999 -9999 -9999 -9999 -9999 -9999 -9999 -9999 -9999 -9999 -9999 -9999 -9999 -9999 -9999 -9999 -9999 -9999 -9999 -9999 -9999 -9999 -9999 -9999 -9999 -9999 -9999 -9999 -9999 -9999 -9999 -9999 -9999 -9999 -9999 -9999 -9999 -9999 -9999 -9999 -9999 -9999 -9999 -9999 -9999 -9999 -9999 -9999 -9999 -9999 -9999 -9999 -9999 -9999 -9999 -9999 -9999 -9999 -9999 -9999 -9999 -9999 -9999 -9999 -9999 -9999 -9999 -9999 -9999 -9999 -9999 -9999 -9999 -9999 -9999 -9999 -9999 -9999 -9999 -9999 -9999 -9999 -9999 -9999 -9999 -9999 -9999 -9999 -9999 -9999 -9999 -9999 -9999 -9999 -9999 -9999 -9999 -9999 -9999 -9999 -9999 -9999 -9999 -9999 -9999 -9999 -9999 -9999 -9999 -9999 -9999 -9999 -9999 -9999 -9999 -9999 -9999 -9999 -9999 -9999 -9999 -9999 -9999 -9999 -9999 -9999 -9999 -9999 -9999 -9999 -9999 -9999 -9999 -9999 -9999
-9999 -9999 -9999 -9999 -9999 -9999 -9999 -9999 -9999 -9999 -9999 -9999 -9999 -9999 -9999 -9999 -9999 -9999 -9999 -9999 -9999 -9999 605 621 658 528 499 515 654 724 654 715 735 719 594 694 741 671 774 844 726 735 675 569 643 623 572 528 494 580 534 612 663 552 586 487 500 469 581 523 591 638 607 533 587 569 653 726 667 610 594 571 661 602 610 523 567 649 632 551 474 474 484 555 476 476 450 484 495 555 731 761 746 787 877 829 746 713 742 716 722 691 759 621 665 612 534 614 724 873 671 679 697 624 520 559 557 824 670 732 694 669 566 516 536 519 487 491 480 496 542 520 535 647 702 665 647 599 538 605 663 576 545 558 603 584 612 634 634 677 794 895 871 879 820 951 1144 997 902 914 1061 1015 877 821 802 714 723 830 671 773 623 650 817 1024 796 892 754 723 816 903 1014 1081 942 754 791 904 765 738 701 511 512 770 793 856 851 900 967 922 967 799 773 875 940 1058 1091 1167 1252 1050 1101 1208 1330 1101 951 885 899 906 1054 991 889 1000 964 1080 964 852 916 1064 1051 1107 979 1025 1023 900 980 1114 943 890 884 1027 965 906 879 852 877 855 886 893 933 888 821 840 845 912 931 928 949 953 959 969 984 1002 1011 1026 1021 1022 1036 1081 1110 1116 1134 1165 1184 1198 1188 1230 1257 1302 1343 1373 1400 1418 1423 1441 1465 1476 1587 1606 1584 1587 1581 1898 1789 1762 1680 1794 1816 1921 1793 -9999 -9999 -9999 -9999 -9999 -9999 -9999 -9999 -9999 -9999 -9999 -9999 -9999 -9999 -9999 -9999 -9999 -9999 -9999 -9999 -9999 -9999 -9999 -9999 -9999 -9999 -9999 -9999 -9999 -9999 -9999 -9999 -9999 -9999 -9999 -9999 -9999 -9999 -9999 -9999 -9999 -9999 -9999 -9999 -9999 -9999 -9999 -9999 -9999 -9999 -9999 -9999 -9999 -9999 -9999 -9999 -9999 -9999 -9999 -9999 -9999 -9999 -9999 -9999 -9999 -9999 -9999 -9999 -9999 -9999 -9999 -9999 -9999 -9999 -9999 -9999 -9999 -9999 -9999 -9999 -9999 -9999 -9999 -9999 -9999 -9999 -9999 -9999 -9999 -9999 -9999 -9999 -9999 -9999 -9999 -9999 -9999 -9999 -9999 -9999 -9999 -9999 -9999 -9999 -9999 -9999 -9999 -9999 -9999 -9999 -9999 -9999 -9999 -9999 -9999 -9999 -9999 -9999 -9999 -9999 -9999 -9999 -9999 -9999 -9999 -9999 -9999 -9999 -9999 -9999 -9999 -9999 -9999 -9999 -9999 -9999 -9999 -9999 -9999 -9999 -9999 -9999 -9999 -9999 -9999 -9999 -9999 -9999 -9999 -9999 -9999 -9999 -9999 -9999 -9999 -9999 -9999 -9999 -9999 -9999 -9999 -9999 -9999 -9999 -9999 -9999 -9999 -9999 -9999 -9999 -9999 -9999 -9999 -9999 -9999 -9999 -9999 -9999 -9999 -9999 -9999 -9999 -9999 -9999 -9999 -9999 -9999 -9999 -9999 -9999 -9999 -9999 -9999 -9999 -9999 -9999 -9999 -9999 -9999 -9999 -9999 -9999 -9999 -9999 -9999 -9999 -9999 -9999 -9999 -9999 -9999 -9999 -9999 -9999 -9999 -9999 -9999 -9999 -9999 -9999 -9999 -9999 -9999 -9999 -9999 -9999 -9999 -9999 -9999 -9999 -9999 -9999 -9999 -9999 -9999 -9999 -9999 -9999 -9999 -9999 -9999 -9999 -9999 -9999 -9999 -9999 -9999 -9999 -9999 -9999 -9999 -9999 -9999 -9999 -9999 -9999 -9999 -9999 -9999 -9999 -9999 -9999 -9999 -9999 -9999 -9999 -9999 -9999 -9999 -9999 -9999 -9999 -9999 -9999 -9999 -9999
-9999 -9999 -9999 -9999 -9999 -9999 -9999 -9999 -9999 -9999 -9999 -9999 -9999 -9999 -9999 -9999 -9999 545 528 683 624 627 559 558 593 626 664 529 599 615 734 691 826 719 643 599 749 824 879 857 628 737 675 651 634 588 534 576 473 564 547 646 530 529 509 542 601 502 573 617 671 646 660 537 579 682 664 693 826 719 668 639 739 682 639 543 555 480 519 523 473 473 492 457 451 442 542 491 601 571 607 792 886 962 1085 931 806 802 678 718 692 738 649 744 814 696 695 543 797 839 659 706 627 593 619 515 511 636 640 535 579 608 566 608 608 542 483 470 481 525 537 591 633 604 665 699 669 627 669 539 710 657 567 675 570 663 660 616 675 597 680 701 753 839 916 891 846 880 964 967 868 774 863 830 604 566 557 669 558 718 529 755 920 1032 743 589 637 846 639 884 997 853 768 650 719 751 776 766 610 499 627 904 890 978 965 1046 1036 938 848 997 1011 1077 1176 1178 1254 1109 1067 1238 1263 1312 1186 1022 1007 1093 1182 1005 939 956 948 921 935 877 877 858 864 879 921 998 1125 1143 1081 973 1044 1149 998 893 895 971 1004 911 862 906 882 880 908 947 866 871 865 849 912 919 905 910 949 957 976 966 993 989 1006 1018 1046 1062 1040 1056 1084 1104 1090 1106 1140 1201 1226 1248 1267 1291 1309 1344 1376 1400 1402 1440 1452 1531 1486 1529 1569 1647 1679 1578 1668 1603 1590 1754 1884 1971 1754 -9999 -9999 -9999 -9999 -9999 -9999 -9999 -9999 -9999 -9999 -9999 -9999 -9999 -9999 -9999 -9999 -9999 -9999 -9999 -9999 -9999 -9999 -9999 -9999 -9999 -9999 -9999 -9999 -9999 -9999 -9999 -9999 -9999 -9999 -9999 -9999 -9999 -9999 -9999 -9999 -9999 -9999 -9999 -9999 -9999 -9999 -9999 -9999 -9999 -9999 -9999 -9999 -9999 -9999 -9999 -9999 -9999 -9999 -9999 -9999 -9999 -9999 -9999 -9999 -9999 -9999 -9999 -9999 -9999 -9999 -9999 -9999 -9999 -9999 -9999 -9999 -9999 -9999 -9999 -9999 -9999 -9999 -9999 -9999 -9999 -9999 -9999 -9999 -9999 -9999 -9999 -9999 -9999 -9999 -9999 -9999 -9999 -9999 -9999 -9999 -9999 -9999 -9999 -9999 -9999 -9999 -9999 -9999 -9999 -9999 -9999 -9999 -9999 -9999 -9999 -9999 -9999 -9999 -9999 -9999 -9999 -9999 -9999 -9999 -9999 -9999 -9999 -9999 -9999 -9999 -9999 -9999 -9999 -9999 -9999 -9999 -9999 -9999 -9999 -9999 -9999 -9999 -9999 -9999 -9999 -9999 -9999 -9999 -9999 -9999 -9999 -9999 -9999 -9999 -9999 -9999 -9999 -9999 -9999 -9999 -9999 -9999 -9999 -9999 -9999 -9999 -9999 -9999 -9999 -9999 -9999 -9999 -9999 -9999 -9999 -9999 -9999 -9999 -9999 -9999 -9999 -9999 -9999 -9999 -9999 -9999 -9999 -9999 -9999 -9999 -9999 -9999 -9999 -9999 -9999 -9999 -9999 -9999 -9999 -9999 -9999 -9999 -9999 -9999 -9999 -9999 -9999 -9999 -9999 -9999 -9999 -9999 -9999 -9999 -9999 -9999 -9999 -9999 -9999 -9999 -9999 -9999 -9999 -9999 -9999 -9999 -9999 -9999 -9999 -9999 -9999 -9999 -9999 -9999 -9999 -9999 -9999 -9999 -9999 -9999 -9999 -9999 -9999 -9999 -9999 -9999 -9999 -9999 -9999 -9999 -9999 -9999 -9999 -9999 -9999 -9999 -9999 -9999 -9999 -9999 -9999 -9999 -9999 -9999 -9999 -9999 -9999 -9999 -9999 -9999 -9999 -9999 -9999 -9999 -9999 -9999
-9999 -9999 -9999 -9999 -9999 -9999 -9999 -9999 -9999 -9999 -9999 -9999 -9999 -9999 -9999 -9999 -9999 560 621 667 632 552 514 623 620 755 666 699 709 677 631 695 611 689 698 578 755 700 758 755 603 635 660 598 594 531 590 523 535 500 521 600 581 565 559 512 648 552 649 599 693 704 623 664 685 698 668 695 713 700 724 620 670 707 592 687 664 578 578 511 484 516 653 571 455 490 569 553 573 662 803 871 912 938 1050 876 797 676 725 741 721 713 639 714 851 724 666 670 515 635 853 612 486 565 518 574 571 476 506 513 564 645 532 572 590 513 460 455 534 598 525 631 659 665 704 674 654 682 628 515 708 702 681 610 699 611 665 687 612 698 653 890 995 1113 1006 1071 1006 919 954 855 864 860 771 637 674 748 782 881 688 639 523 550 758 892 675 551 678 882 892 798 740 647 623 951 896 889 718 587 522 660 838 794 914 992 927 895 802 900 1132 1180 1214 1140 1047 963 945 865 925 1062 1080 1006 920 1086 1148 963 1089 1265 1079 1060 969 857 863 870 856 824 869 868 881 930 1062 1194 1165 1041 1133 1009 947 1060 1017 930 907 877 883 874 907 954 925 850 906 911 906 882 870 919 935 928 933 945 931 943 959 974 991 1011 1038 1062 1067 1105 1087 1094 1116 1139 1138 1156 1201 1237 1246 1280 1315 1315 1347 1349 1369 1435 1493 1452 1470 1495 1590 1493 1469 1579 1522 1681 1783 1680 1734 2005 1803 -9999 -9999 -9999 -9999 -9999 -9999 -9999 -9999 -9999 -9999 -9999 -9999 -9999 -9999 -9999 -9999 -9999 -9999 -9999 -9999 -9999 -9999 -9999 -9999 -9999 -9999 -9999 -9999 -9999 -9999 -9999 -9999 -9999 -9999 -9999 -9999 -9999 -9999 -9999 -9999 -9999 -9999 -9999 -9999 -9999 -9999 -9999 -9999 -9999 -9999 -9999 -9999 -9999 -9999 -9999 -9999 -9999 -9999 -9999 -9999 -9999 -9999 -9999 -9999 -9999 -9999 -9999 -9999 -9999 -9999 -9999 -9999 -9999 -9999 -9999 -9999 -9999 -9999 -9999 -9999 -9999 -9999 -9999 -9999 -9999 -9999 -9999 -9999 -9999 -9999 -9999 -9999 -9999 -9999 -9999 -9999 -9999 -9999 -9999 -9999 -9999 -9999 -9999 -9999 -9999 -9999 -9999 -9999 -9999 -9999 -9999 -9999 -9999 -9999 -9999 -9999 -9999 -9999 -9999 -9999 -9999 -9999 -9999 -9999 -9999 -9999 -9999 -9999 -9999 -9999 -9999 -9999 -9999 -9999 -9999 -9999 -9999 -9999 -9999 -9999 -9999 -9999 -9999 -9999 -9999 -9999 -9999 -9999 -9999 -9999 -9999 -9999 -9999 -9999 -9999 -9999 -9999 -9999 -9999 -9999 -9999 -9999 -9999 -9999 -9999 -9999 -9999 -9999 -9999 -9999 -9999 -9999 -9999 -9999 -9999 -9999 -9999 -9999 -9999 -9999 -9999 -9999 -9999 -9999 -9999 -9999 -9999 -9999 -9999 -9999 -9999 -9999 -9999 -9999 -9999 -9999 -9999 -9999 -9999 -9999 -9999 -9999 -9999 -9999 -9999 -9999 -9999 -9999 -9999 -9999 -9999 -9999 -9999 -9999 -9999 -9999 -9999 -9999 -9999 -9999 -9999 -9999 -9999 -9999 -9999 -9999 -9999 -9999 -9999 -9999 -9999 -9999 -9999 -9999 -9999 -9999 -9999 -9999 -9999 -9999 -9999 -9999 -9999 -9999 -9999 -9999 -9999 -9999 -9999 -9999 -9999 -9999 -9999 -9999 -9999 -9999 -9999 -9999 -9999 -9999 -9999 -9999 -9999 -9999 -9999 -9999 -9999 -9999 -9999 -9999 -9999 -9999 -9999 -9999 -9999 -9999
-9999 -9999 -9999 -9999 -9999 -9999 -9999 -9999 -9999 -9999 -9999 -9999 -9999 -9999 -9999 -9999 -9999 527 613 593 512 555 620 583 733 723 683 651 640 671 766 705 617 888 691 668 558 588 599 578 705 552 624 601 648 582 600 627 566 539 607 591 636 654 569 594 635 729 641 730 766 697 662 742 772 706 767 634 562 673 682 530 607 632 669 723 598 552 563 542 578 622 659 570 422 516 474 512 579 770 813 887 931 1090 1130 971 905 743 668 729 829 667 682 614 748 939 736 698 559 516 494 501 491 553 496 575 574 591 545 440 549 540 512 510 504 460 475 520 509 489 540 617 662 628 683 645 710 599 538 642 768 706 646 661 661 641 687 776 713 647 764 778 840 820 848 862 957 1006 861 816 822 771 663 771 887 920 901 829 856 705 624 484 506 814 579 591 626 584 725 789 830 933 557 732 906 577 554 583 784 875 877 1030 1014 894 964 756 919 1093 1115 1062 1045 956 995 824 854 807 726 767 941 912 964 924 842 874 961 980 883 914 859 859 797 874 831 858 832 870 880 903 986 1030 1058 1051 1124 1000 1106 1165 1073 979 899 908 993 886 901 916 908 898 907 930 889 907 901 851 858 912 947 953 960 924 961 992 1006 1023 1040 1053 1062 1085 1103 1111 1115 1140 1175 1202 1198 1234 1174 1255 1296 1287 1311 1354 1417 1442 1397 1398 1421 1512 1408 1580 1593 1634 1759 1535 1768 1796 1614 1740 1772 1652 -9999 -9999 -9999 -9999 -9999 -9999 -9999 -9999 -9999 -9999 -9999 -9999 -9999 -9999 -9999 -9999 -9999 -9999 -9999 -9999 -9999 -9999 -9999 -9999 -9999 -9999 -9999 -9999 -9999 -9999 -9999 -9999 -9999 -9999 -9999 -9999 -9999 -9999 -9999 -9999 -9999 -9999 -9999 -9999 -9999 -9999 -9999 -9999 -9999 -9999 -9999 -9999 -9999 -9999 -9999 -9999 -9999 -9999 -9999 -9999 -9999 -9999 -9999 -9999 -9999 -9999 -9999 -9999 -9999 -9999 -9999 -9999 -9999 -9999 -9999 -9999 -9999 -9999 -9999 -9999 -9999 -9999 -9999 -9999 -9999 -9999 -9999 -9999 -9999 -9999 -9999 -9999 -9999 -9999 -9999 -9999 -9999 -9999 -9999 -9999 -9999 -9999 -9999 -9999 -9999 -9999 -9999 -9999 -9999 -9999 -9999 -9999 -9999 -9999 -9999 -9999 -9999 -9999 -9999 -9999 -9999 -9999 -9999 -9999 -9999 -9999 -9999 -9999 -9999 -9999 -9999 -9999 -9999 -9999 -9999 -9999 -9999 -9999 -9999 -9999 -9999 -9999 -9999 -9999 -9999 -9999 -9999 -9999 -9999 -9999 -9999 -9999 -9999 -9999 -9999 -9999 -9999 -9999 -9999 -9999 -9999 -9999 -9999 -9999 -9999 -9999 -9999 -9999 -9999 -9999 -9999 -9999 -9999 -9999 -9999 -9999 -9999 -9999 -9999 -9999 -9999 -9999 -9999 -9999 -9999 -9999 -9999 -9999 -9999 -9999 -9999 -9999 -9999 -9999 -9999 -9999 -9999 -9999 -9999 -9999 -9999 -9999 -9999 -9999 -9999 -9999 -9999 -9999 -9999 -9999 -9999 -9999 -9999 -9999 -9999 -9999 -9999 -9999 -9999 -9999 -9999 -9999 -9999 -9999 -9999 -9999 -9999 -9999 -9999 -9999 -9999 -9999 -9999 -9999 -9999 -9999 -9999 -9999 -9999 -9999 -9999 -9999 -9999 -9999 -9999 -9999 -9999 -9999 -9999 -9999 -9999 -9999 -9999 -9999 -9999 -9999 -9999 -9999 -9999 -9999 -9999 -9999 -9999 -9999 -9999 -9999 -9999 -9999 -9999 -9999 -9999 -9999 -9999 -9999 -9999
-9999 -9999 -9999 -9999 -9999 -9999 -9999 -9999 -9999 -9999 -9999 -9999 -9999 -9999 -9999 -9999 467 589 561 514 568 616 685 642 587 719 684 697 790 762 688 671 774 700 787 729 658 551 585 540 574 540 554 555 595 569 609 636 582 557 647 669 630 643 598 640 540 614 628 622 711 678 659 638 622 601 602 600 581 555 544 527 596 626 659 739 812 777 662 659 716 534 590 593 554 406 474 570 494 612 680 738 821 975 818 836 735 683 684 604 691 681 779 672 644 591 579 686 635 621 671 643 711 711 597 450 583 548 481 443 441 445 441 444 459 449 554 599 489 619 615 643 632 671 637 617 608 552 581 687 576 640 690 669 707 694 729 675 728 732 839 854 861 940 859 1102 1075 1075 905 865 784 710 770 914 799 989 945 794 667 833 735 709 485 505 524 516 694 647 874 939 1155 1086 888 695 511 604 474 612 879 1030 1112 992 782 849 833 730 923 906 938 832 961 838 785 836 731 676 833 946 763 1023 1179 1055 1086 840 766 833 810 889 874 815 761 809 842 849 834 842 857 848 910 857 874 889 952 1049 1164 1202 1191 1087 963 918 998 912 992 916 904 940 913 922 913 908 923 920 912 852 928 953 941 976 974 967 1006 1019 1039 1050 1071 1075 1098 1125 1151 1160 1186 1185 1220 1245 1244 1262 1280 1309 1311 1302 1284 1371 1373 1370 1427 1446 1381 1381 1407 1436 1489 1499 1648 1785 1766 1571 1745 1629 -9999 -9999 -9999 -9999 -9999 -9999 -9999 -9999 -9999 -9999 -9999 -9999 -9999 -9999 -9999 -9999 -9999 -9999 -9999 -9999 -9999 -9999 -9999 -9999 -9999 -9999 -9999 -9999 -9999 -9999 -9999 -9999 -9999 -9999 -9999 -9999 -9999 -9999 -9999 -9999 -9999 -9999 -9999 -9999 -9999 -9999 -9999 -9999 -9999 -9999 -9999 -9999 -9999 -9999 -9999 -9999 -9999 -9999 -9999 -9999 -9999 -9999 -9999 -9999 -9999 -9999 -9999 -9999 -9999 -9999 -9999 -9999 -9999 -9999 -9999 -9999 -9999 -9999 -9999 -9999 -9999 -9999 -9999 -9999 -9999 -9999 -9999 -9999 -9999 -9999 -9999 -9999 -9999 -9999 -9999 -9999 -9999 -9999 -9999 -9999 -9999 -9999 -9999 -9999 -9999 -9999 -9999 -9999 -9999 -9999 -9999 -9999 -9999 -9999 -9999 -9999 -9999 -9999 -9999 -9999 -9999 -9999 -9999 -9999 -9999 -9999 -9999 -9999 -9999 -9999 -9999 -9999 -9999 -9999 -9999 -9999 -9999 -9999 -9999 -9999 -9999 -9999 -9999 -9999 -9999 -9999 -9999 -9999 -9999 -9999 -9999 -9999 -9999 -9999 -9999 -9999 -9999 -9999 -9999 -9999 -9999 -9999 -9999 -9999 -9999 -9999 -9999 -9999 -9999 -9999 -9999 -9999 -9999 -9999 -9999 -9999 -9999 -9999 -9999 -9999 -9999 -9999 -9999 -9999 -9999 -9999 -9999 -9999 -9999 -9999 -9999 -9999 -9999 -9999 -9999 -9999 -9999 -9999 -9999 -9999 -9999 -9999 -9999 -9999 -9999 -9999 -9999 -9999 -9999 -9999 -9999 -9999 -9999 -9999 -9999 -9999 -9999 -9999 -9999 -9999 -9999 -9999 -9999 -9999 -9999 -9999 -9999 -9999 -9999 -9999 -9999 -9999 -9999 -9999 -9999 -9999 -9999 -9999 -9999 -9999 -9999 -9999 -9999 -9999 -9999 -9999 -9999 -9999 -9999 -9999 -9999 -9999 -9999 -9999 -9999 -9999 -9999 -9999 -9999 -9999 -9999 -9999 -9999 -9999 -9999 -9999 -9999 -9999 -9999 -9999 -9999 -9999 -9999 -9999 -9999
-9999 -9999 -9999 -9999 -9999 -9999 -9999 -9999 -9999 -9999 -9999 -9999 -9999 -9999 -9999 -9999 560 519 515 532 531 543 585 514 618 621 751 756 689 645 717 643 630 662 614 601 688 667 638 689 537 495 569 636 545 610 578 591 638 652 681 645 712 669 628 617 630 541 621 601 599 686 708 664 777 764 730 684 816 676 638 576 532 653 670 631 842 686 610 522 589 548 522 527 606 446 525 658 717 588 628 846 871 936 779 686 720 713 668 541 521 657 627 569 535 624 536 564 583 584 667 556 584 653 650 565 560 451 458 439 448 452 451 448 497 518 615 569 596 557 625 696 740 719 705 667 684 683 530 691 625 682 667 728 697 745 801 757 907 704 836 858 948 1094 1031 1136 1145 936 973 888 745 834 860 914 1021 812 754 621 585 528 567 542 555 420 463 616 796 756 716 884 1076 873 685 685 614 608 439 827 749 790 821 949 967 744 701 876 902 989 897 848 890 959 903 803 834 652 775 696 877 1017 1111 1064 909 941 888 834 752 836 827 768 835 837 828 807 808 839 810 821 815 842 878 871 910 1078 1108 993 959 968 984 904 922 897 905 969 921 944 912 942 913 907 925 934 904 936 874 952 968 968 982 1005 1002 1027 1032 1010 1076 1088 1102 1123 1131 1156 1142 1184 1203 1240 1236 1270 1293 1319 1339 1370 1363 1312 1353 1388 1418 1459 1499 1593 1624 1671 1709 1853 1728 1879 1858 1783 1707 -9999 -9999 -9999 -9999 -9999 -9999 -9999 -9999 -9999 -9999 -9999 -9999 -9999 -9999 -9999 -9999 -9999 -9999 -9999 -9999 -9999 -9999 -9999 -9999 -9999 -9999 -9999 -9999 -9999 -9999 -9999 -9999 -9999 -9999 -9999 -9999 -9999 -9999 -9999 -9999 -9999 -9999 -9999 -9999 -9999 -9999 -9999 -9999 -9999 -9999 -9999 -9999 -9999 -9999 -9999 -9999 -9999 -9999 -9999 -9999 -9999 -9999 -9999 -9999 -9999 -9999 -9999 -9999 -9999 -9999 -9999 -9999 -9999 -9999 -9999 -9999 -9999 -9999 -9999 -9999 -9999 -9999 -9999 -9999 -9999 -9999 -9999 -9999 -9999 -9999 -9999 -9999 -9999 -9999 -9999 -9999 -9999 -9999 -9999 -9999 -9999 -9999 -9999 -9999 -9999 -9999 -9999 -9999 -9999 -9999 -9999 -9999 -9999 -9999 -9999 -9999 -9999 -9999 -9999 -9999 -9999 -9999 -9999 -9999 -9999 -9999 -9999 -9999 -9999 -9999 -9999 -9999 -9999 -9999 -9999 -9999 -9999 -9999 -9999 -9999 -9999 -9999 -9999 -9999 -9999 -9999 -9999 -9999 -9999 -9999 -9999 -9999 -9999 -9999 -9999 -9999 -9999 -9999 -9999 -9999 -9999 -9999 -9999 -9999 -9999 -9999 -9999 -9999 -9999 -9999 -9999 -9999 -9999 -9999 -9999 -9999 -9999 -9999 -9999 -9999 -9999 -9999 -9999 -9999 -9999 -9999 -9999 -9999 -9999 -9999 -9999 -9999 -9999 -9999 -9999 -9999 -9999 -9999 -9999 -9999 -9999 -9999 -9999 -9999 -9999 -9999 -9999 -9999 -9999 -9999 -9999 -9999 -9999 -9999 -9999 -9999 -9999 -9999 -9999 -9999 -9999 -9999 -9999 -9999 -9999 -9999 -9999 -9999 -9999 -9999 -9999 -9999 -9999 -9999 -9999 -9999 -9999 -9999 -9999 -9999 -9999 -9999 -9999 -9999 -9999 -9999 -9999 -9999 -9999 -9999 -9999 -9999 -9999 -9999 -9999 -9999 -9999 -9999 -9999 -9999 -9999 -9999 -9999 -9999 -9999 -9999 -9999 -9999 -9999 -9999 -9999 -9999 -9999 -9999 -9999 -9999
